ncols         262
nrows         41
xllcorner     4472949
yllcorner     5543817
cellsize      5 
NODATA_value  -9999 
373.9598	373.6753	373.4166	373.1557	372.8736	372.6049	372.3414	372.0704	371.8284	371.5566	371.2715	370.9589	370.745	370.5383	370.3222	370.1053	369.8901	369.654	369.4435	369.2513	369.0325	368.8085	368.6419	368.4707	368.216	367.9228	367.6309	367.3341	367.0371	366.7168	366.3525	365.985	365.6461	365.3398	365.0034	364.6522	364.2625	363.8717	363.5235	363.1093	362.6342	362.217	361.8703	361.2794	360.937	360.9294	361.5231	361.7401	361.8183	361.9341	362.1003	363.1143	364.0529	364.6042	364.8909	364.8702	365.0248	365.1501	365.2536	365.339	365.4212	365.4676	365.4968	365.5437	365.5839	365.6053	365.6708	365.5334	365.5876	365.58	365.5246	365.4986	365.4958	365.4673	365.3913	365.1979	365.1063	365.0191	364.9489	364.8687	364.7814	364.7404	364.6605	364.5922	364.5246	364.4627	364.4311	364.4194	364.3766	364.3098	364.2605	364.2253	364.2468	364.2239	364.2672	364.3466	364.4486	364.4912	364.5346	364.4564	364.3463	364.2721	364.1771	364.1004	364.0354	363.9547	363.8702	363.7948	363.7032	363.5904	363.4913	363.383	363.3	363.2301	363.1155	363.0603	363.0293	362.9798	362.9942	362.9948	362.8704	362.7295	362.6118	362.5071	362.3853	362.2167	362.0562	361.9434	361.8394	361.7973	361.7186	361.6422	361.5302	361.4735	361.4583	361.3636	361.2803	361.1946	361.05	360.8862	360.7294	360.6175	360.5622	360.4736	360.4052	360.3388	360.284	360.2329	360.2074	360.1974	360.1972	360.2252	360.2756	360.3535	360.4552	360.5414	360.5886	360.6213	360.6556	360.6776	360.7881	360.8092	360.7867	360.8525	360.8728	360.8885	360.847	360.8921	360.9385	360.9633	361.0054	361.0758	361.1138	361.1734	361.1936	361.21	361.2347	361.2724	361.3056	361.3266	361.3363	361.344	361.39	361.4054	361.4731	361.5353	361.5612	361.591	361.6393	361.6862	361.7073	361.7411	361.7679	361.7984	361.7998	361.7862	361.8043	361.8056	361.808	361.8271	361.806	361.8253	361.8386	361.8693	361.8854	361.915	361.9673	361.9818	362.0355	362.1038	362.1509	362.193	362.2269	362.248	362.1018	362.0155	361.9193	361.836	361.8495	361.8835	361.9642	362.1115	362.3339	361.9986	361.347	361.4221	362.1792	362.1658	362.0104	361.9454	361.9395	361.9157	361.8963	361.8696	361.8256	361.8024	361.7718	361.7971	361.7939	361.8392	361.9183	361.9861	362.063	362.1294	362.1938	362.2732	362.3452	362.4204	362.4802	362.4547	362.3062	361.6286	362.1222	362.474	362.5301	362.5954	362.6953	362.7851	362.8596	362.8043	362.7613	362.7644
374.2277	373.9485	373.7088	373.4436	373.1895	372.8987	372.6452	372.3537	372.0936	371.836	371.5379	371.2309	370.9782	370.7719	370.5515	370.3271	370.1113	369.8874	369.6566	369.4701	369.246	368.9989	368.7725	368.5867	368.3401	368.0334	367.7098	367.3828	367.0713	366.7316	366.3719	366.0041	365.6747	365.3534	365.0184	364.6569	364.2818	363.921	363.5972	363.2726	362.8775	362.3539	361.9162	361.4567	361.0313	361.2471	361.7441	361.9713	361.94	362.0664	362.1994	363.1992	364.2229	364.771	365.117	365.1386	365.2786	365.3924	365.496	365.5923	365.6725	365.7364	365.7858	365.8276	365.8709	365.8954	365.9615	365.8044	365.8421	365.8332	365.7715	365.7676	365.7437	365.6949	365.5739	365.3979	365.3056	365.2403	365.1781	365.0949	365.0039	364.9506	364.8786	364.8048	364.7487	364.7023	364.677	364.6757	364.6692	364.6026	364.536	364.4569	364.4495	364.4627	364.4996	364.5799	364.6995	364.7245	364.7326	364.6581	364.5662	364.5034	364.4162	364.4009	364.3028	364.2037	364.1126	364.0215	363.9257	363.8212	363.714	363.5933	363.4783	363.3643	363.3126	363.223	363.1877	363.1465	363.1279	363.0883	363.0335	363.0109	362.9711	362.9119	362.7026	362.4682	362.2711	362.136	362.012	361.9377	361.8122	361.6929	361.5445	361.4958	361.4579	361.3813	361.2964	361.2009	361.0522	360.9137	360.789	360.6806	360.601	360.522	360.4623	360.3836	360.3187	360.2635	360.2439	360.2088	360.2097	360.2101	360.2365	360.2813	360.3938	360.4887	360.5289	360.5807	360.6242	360.6675	360.7043	360.8337	360.8776	360.8917	360.8684	360.8765	360.847	360.8776	360.9222	360.9341	360.9825	361.0562	361.1225	361.2141	361.2935	361.3241	361.3462	361.3748	361.3715	361.3952	361.414	361.437	361.4696	361.4854	361.512	361.6009	361.6422	361.6664	361.7063	361.7228	361.7629	361.7744	361.7947	361.8271	361.8492	361.9034	361.9117	361.8982	361.9088	361.8886	361.9178	361.9069	361.9433	361.9858	362.0151	362.0666	362.0829	362.1118	362.147	362.1815	362.2099	362.2571	362.3092	362.2665	362.2343	362.1848	362.0675	361.9681	361.9622	362.0251	362.085	362.1903	362.3988	361.7574	361.347	362.1208	362.2965	362.11	362.0133	361.9803	361.995	361.9556	361.9366	361.9079	361.8995	361.8504	361.8193	361.8125	361.8518	361.9091	361.9608	362.0192	362.0877	362.1611	362.2345	362.3213	362.3877	362.4588	362.5043	362.4098	362.3802	361.8862	361.6286	362.3071	362.3756	362.4651	362.5569	362.6258	362.6339	362.5906	362.5747	362.5786
374.5132	374.2317	373.9834	373.7265	373.4874	373.1813	372.9227	372.6227	372.3481	372.0855	371.7859	371.488	371.183	370.9798	370.7643	370.5363	370.3172	370.0988	369.8551	369.6392	369.4123	369.1451	368.8703	368.6183	368.3825	368.074	367.7287	367.3938	367.0751	366.745	366.3852	366.0139	365.6605	365.3274	364.9886	364.6383	364.2641	363.9109	363.5984	363.3123	362.9407	362.4435	362.025	361.6532	361.2606	361.2452	361.9403	362.0464	362.0824	362.231	362.4798	363.483	364.4284	364.9517	365.2649	365.3371	365.5224	365.6585	365.7688	365.8548	365.9355	366.0028	366.0604	366.0987	366.142	366.1614	366.2057	366.0495	366.0734	366.0576	366.0027	366.0025	365.9688	365.9081	365.787	365.6095	365.5388	365.4609	365.3874	365.3214	365.2482	365.1977	365.1241	365.0511	365.0076	364.9803	364.9654	364.9708	365.0352	364.9436	364.7984	364.6985	364.6752	364.6979	364.7524	364.8374	364.934	364.949	364.9427	364.8508	364.7672	364.7125	364.64	364.6405	364.5748	364.4703	364.3616	364.2574	364.1563	364.0452	363.9347	363.8165	363.675	363.5327	363.4475	363.4064	363.3247	363.2786	363.2713	363.2552	363.1891	363.2166	363.1973	363.1326	362.9256	362.7115	362.5086	362.3473	362.2032	362.0855	361.9102	361.7394	361.5615	361.5128	361.5199	361.456	361.3656	361.2551	361.1249	360.9873	360.8752	360.7402	360.6537	360.5788	360.5194	360.4299	360.3705	360.3146	360.2862	360.2533	360.2223	360.2143	360.2101	360.2379	360.3264	360.3979	360.4796	360.5321	360.5789	360.6232	360.6852	360.7373	360.845	360.8947	360.8565	360.8737	360.8603	360.8923	360.9226	360.9334	360.9965	361.0477	361.1098	361.1556	361.2025	361.2974	361.3926	361.4577	361.4624	361.5034	361.5172	361.5123	361.554	361.5789	361.5412	361.6478	361.6749	361.7176	361.7411	361.7608	361.7855	361.8302	361.8515	361.8506	361.8602	361.9216	361.9749	361.9756	362.0092	361.9742	362.045	362.0617	362.0768	362.0981	362.1379	362.1651	362.1807	362.2229	362.2557	362.2672	362.2836	362.3204	362.3593	362.3279	362.3079	362.3512	362.3143	362.207	362.1143	362.1345	362.2172	362.2984	362.4343	362.1305	361.347	361.4532	362.3936	362.1642	362.0573	362.0242	362.0265	361.998	361.9722	361.9403	361.9279	361.8898	361.8489	361.843	361.919	361.9616	362.0086	362.0567	362.1241	362.2018	362.2761	362.3668	362.4571	362.5052	362.4626	362.4026	362.3582	362.3297	362.3594	362.362	362.3071	362.3071	362.3071	362.3071	362.3071	362.3071	362.3071	362.3071
374.8134	374.4924	374.232	373.9813	373.7465	373.446	373.1677	372.8704	372.5752	372.2988	372.0175	371.7246	371.38	371.1674	370.9538	370.7253	370.5005	370.2678	370.0206	369.761	369.5256	369.2428	368.9294	368.6245	368.3638	368.058	367.7126	367.3936	367.078	366.7592	366.3903	365.9907	365.6279	365.2731	364.9324	364.5822	364.1942	363.8228	363.5631	363.262	362.897	362.4895	362.1495	362.1024	361.563	361.3091	362.0062	362.1628	362.2991	362.5633	363.1975	363.9968	364.676	365.1479	365.5167	365.5216	365.7344	365.8857	365.9986	366.086	366.1678	366.2317	366.2678	366.3051	366.3298	366.3529	366.3897	366.2298	366.2635	366.2435	366.2068	366.197	366.1639	366.1093	366.0401	365.8926	365.8018	365.7171	365.6492	365.5854	365.5361	365.4824	365.4072	365.3419	365.2936	365.2681	365.2607	365.2568	365.2726	365.1707	365.0002	364.913	364.8936	364.9256	364.9771	365.0784	365.124	365.1528	365.1276	365.0456	364.9575	364.901	364.838	364.8186	364.7817	364.7067	364.6048	364.4861	364.3671	364.2586	364.1371	364.0191	363.8787	363.7246	363.6156	363.5985	363.5483	363.4449	363.3679	363.3246	363.2896	363.3262	363.3166	363.2489	363.0956	362.9342	362.7217	362.5196	362.362	362.2161	362.0757	361.8911	361.6852	361.6161	361.6416	361.5978	361.4928	361.3773	361.2667	361.1074	360.9886	360.8379	360.7359	360.6313	360.5593	360.4767	360.4192	360.3586	360.3228	360.2991	360.2782	360.2447	360.2176	360.237	360.2743	360.2901	360.3583	360.4478	360.5081	360.5762	360.6319	360.6732	360.7177	360.8343	360.8915	360.8992	360.8558	360.9006	360.9276	360.9487	360.9963	361.0379	361.1113	361.1786	361.2413	361.2639	361.3109	361.4079	361.505	361.575	361.6175	361.6375	361.6619	361.6688	361.6156	361.7092	361.733	361.7582	361.7854	361.8383	361.8615	361.8828	361.9009	361.9046	361.9439	361.9742	362.0318	362.0229	362.0209	362.0133	362.043	362.0572	362.0681	362.0971	362.1349	362.1644	362.199	362.2393	362.2667	362.2921	362.3136	362.3449	362.3932	362.3723	362.3326	362.353	362.3785	362.3991	362.3132	362.2473	362.3202	362.4107	362.4865	362.4357	361.7536	361.347	362.2536	362.2378	362.1096	362.0679	362.0434	362.0234	361.9925	361.9598	361.9441	361.9174	361.8804	361.9201	361.994	362.0235	362.0526	362.085	362.1507	362.2254	362.3226	362.4251	362.5262	362.5143	362.4318	362.3962	362.3813	362.3481	362.3733	362.3071	362.3071	362.3071	362.3071	362.3071	362.3071	362.3071	362.3071	362.3071
375.0946	374.7596	374.4773	374.2292	373.987	373.7241	373.4033	373.1171	372.8012	372.5187	372.2501	371.9306	371.6001	371.3504	371.1402	370.9034	370.662	370.4122	370.1543	369.8578	369.5833	369.2849	368.9399	368.5984	368.3039	368.0208	367.7065	367.3938	367.0639	366.7249	366.3529	365.9663	365.603	365.2322	364.8613	364.4094	363.9904	363.7281	363.5341	363.2607	362.9456	362.6023	362.2859	361.992	361.5773	361.6724	362.2016	362.3564	362.8553	363.3127	363.9254	364.4416	364.9242	365.3779	365.743	365.7246	365.9468	366.1122	366.2125	366.2991	366.3676	366.4292	366.4596	366.4731	366.4959	366.5114	366.5534	366.4177	366.4484	366.4473	366.4102	366.3999	366.3672	366.3267	366.2527	366.1298	366.0632	365.9966	365.9447	365.8892	365.8234	365.7695	365.6979	365.628	365.5538	365.4983	365.4566	365.4561	365.4633	365.4033	365.265	365.1768	365.162	365.2014	365.2202	365.2906	365.3297	365.3599	365.3549	365.262	365.1638	365.1233	365.0559	365.0284	364.989	364.9257	364.8516	364.7542	364.6185	364.49	364.3646	364.233	364.0856	363.9348	363.8115	363.7547	363.7489	363.6403	363.5219	363.459	363.4465	363.4557	363.4128	363.3805	363.1871	363.0501	362.899	362.7209	362.5764	362.3761	362.2727	362.1227	361.9672	361.8685	361.873	361.8205	361.7296	361.5971	361.466	361.2913	361.1791	361.0197	360.8715	360.762	360.6493	360.5444	360.4771	360.4101	360.3656	360.3368	360.3082	360.282	360.2751	360.2554	360.2625	360.2852	360.3066	360.3556	360.4231	360.4838	360.5798	360.6593	360.6554	360.6937	360.8193	360.8326	360.8664	360.909	360.8917	360.9465	360.9949	361.0619	361.1248	361.1671	361.2244	361.286	361.3398	361.3975	361.4335	361.4917	361.5903	361.6611	361.7148	361.7483	361.7275	361.7672	361.8177	361.8163	361.8321	361.8681	361.9201	361.9278	361.9526	361.9727	361.9781	362.013	362.0289	362.0384	362.1087	362.0804	362.1133	362.1241	362.1392	362.1594	362.1827	362.2054	362.231	362.2625	362.2834	362.2963	362.3286	362.3381	362.346	362.3326	362.3595	362.3857	362.382	362.4158	362.4617	362.4539	362.4413	362.4886	362.5701	362.6084	362.457	361.6281	361.4849	362.4007	362.1953	362.1345	362.09	362.0581	362.0305	361.9927	361.9867	361.9615	361.9801	362.058	362.0895	362.0944	362.0907	362.1138	362.164	362.2611	362.3934	362.5187	362.5354	362.4691	362.4256	362.4116	362.3848	362.3654	362.3171	362.3071	362.3071	362.3071	362.333	362.3571	362.4062	362.407	362.4337	362.4519
375.2846	375.0136	374.6871	374.4343	374.1852	373.9401	373.6064	373.3221	372.9934	372.6982	372.4335	372.1309	371.8103	371.5059	371.2841	371.0486	370.8001	370.5356	370.2451	369.9176	369.5808	369.2685	368.9194	368.5753	368.2654	367.996	367.7083	367.3839	367.0412	366.6882	366.3396	365.9431	365.5587	365.137	364.6339	364.2147	363.9437	363.7635	363.5843	363.309	363.0083	362.6996	362.3676	361.8787	361.5925	362.0299	362.3523	362.5282	363.0887	363.6675	364.3209	364.7958	365.1524	365.5891	365.9235	365.9116	366.124	366.2969	366.3956	366.4773	366.5498	366.6018	366.6182	366.6222	366.6455	366.6626	366.7168	366.5944	366.6306	366.6419	366.6147	366.5923	366.5764	366.5333	366.4518	366.297	366.2431	366.1723	366.1221	366.0744	366.0173	365.9632	365.9026	365.8289	365.7646	365.7001	365.6361	365.6168	365.6234	365.5968	365.5212	365.4643	365.4688	365.4987	365.4832	365.529	365.5193	365.5639	365.5676	365.4689	365.375	365.3336	365.2798	365.2412	365.1911	365.1255	365.0491	364.9686	364.868	364.735	364.5722	364.4258	364.2764	364.1245	363.9846	363.8788	363.8706	363.7856	363.6837	363.637	363.642	363.5786	363.5432	363.5246	363.3919	363.1647	362.9837	362.87	362.745	362.5696	362.4544	362.3389	362.2396	362.1461	362.1197	362.0627	361.985	361.8439	361.6827	361.4889	361.3781	361.2034	361.0414	360.8933	360.772	360.64	360.543	360.4702	360.4185	360.3799	360.3549	360.3297	360.3149	360.2901	360.2936	360.306	360.3241	360.3394	360.3739	360.4333	360.4994	360.5836	360.6292	360.6872	360.7053	360.7935	360.8021	360.8444	360.8801	360.9263	360.9732	361.0266	361.0914	361.1601	361.2212	361.2648	361.3186	361.3797	361.4441	361.5265	361.5859	361.6156	361.6926	361.7643	361.8128	361.7991	361.8893	361.8829	361.8964	361.9203	361.9406	361.9544	361.9812	361.9766	362.0197	362.0776	362.08	362.0966	362.1907	362.1707	362.1837	362.175	362.201	362.2043	362.2162	362.2501	362.2745	362.2914	362.2923	362.2995	362.3285	362.3652	362.3487	362.3326	362.3484	362.3672	362.4134	362.4349	362.4845	362.4933	362.5174	362.5423	362.6414	362.6063	362.3492	361.8034	361.515	362.4985	362.263	362.1893	362.1413	362.0956	362.0712	362.0786	362.0501	362.0379	362.0776	362.1306	362.1385	362.1444	362.1454	362.1489	362.2028	362.3152	362.4579	362.5623	362.5186	362.4749	362.4384	362.4109	362.395	362.365	362.3071	362.3071	362.3071	362.3071	362.314	362.38	362.4238	362.4411	362.4473	362.4344
375.427	375.2393	374.8919	374.616	374.3628	374.1194	373.8073	373.4956	373.1719	372.8564	372.5817	372.3036	371.9889	371.6536	371.4145	371.1793	370.9186	370.6214	370.2899	369.9476	369.5671	369.2355	368.8936	368.5628	368.2506	367.9872	367.6972	367.3822	367.0488	366.6837	366.2969	365.8826	365.4201	364.9066	364.5303	364.2638	364.0234	363.8248	363.612	363.3557	363.0856	362.7544	362.2513	361.9862	361.8226	361.8708	362.4154	362.5759	363.1422	363.8102	364.5855	365.1175	365.3976	365.7892	366.0858	366.0792	366.2912	366.4689	366.572	366.6509	366.7266	366.77	366.7898	366.7964	366.8156	366.8375	366.8983	366.788	366.831	366.8507	366.8304	366.8082	366.797	366.7564	366.6871	366.5227	366.4644	366.4076	366.3719	366.3249	366.2648	366.2176	366.1738	366.1236	366.0521	365.9769	365.914	365.8843	365.8669	365.8475	365.8241	365.8015	365.8048	365.7909	365.7326	365.7513	365.729	365.7776	365.7893	365.698	365.6057	365.5591	365.5134	365.4813	365.422	365.3464	365.2558	365.1682	365.0637	364.955	364.8178	364.6544	364.4736	364.308	364.1613	364.0234	363.9926	363.9346	363.8566	363.7899	363.7565	363.6955	363.661	363.641	363.5989	363.3735	363.1411	362.9876	362.8711	362.7619	362.6539	362.5271	362.458	362.4059	362.3682	362.3654	362.3203	362.1902	361.9839	361.7502	361.5957	361.3705	361.1859	361.0206	360.9014	360.7585	360.619	360.5274	360.4781	360.4386	360.4167	360.3838	360.3562	360.34	360.3448	360.3493	360.3461	360.3572	360.3854	360.4152	360.4582	360.5205	360.5921	360.672	360.6774	360.7214	360.772	360.7879	360.8356	360.8918	360.9598	361.0057	361.0468	361.109	361.1707	361.228	361.3089	361.3716	361.4239	361.511	361.566	361.61	361.6768	361.7325	361.7978	361.8228	361.9012	361.941	361.9388	361.9574	362.002	362.0168	362.0654	362.0882	362.1453	362.1694	362.1871	362.2429	362.3087	362.2787	362.2815	362.2723	362.2692	362.2556	362.2893	362.3215	362.3494	362.3478	362.3508	362.3789	362.3947	362.4001	362.3731	362.381	362.386	362.3937	362.4216	362.435	362.5134	362.5603	362.5398	362.6423	362.6431	361.9127	361.5456	361.515	361.996	362.5204	362.3177	362.2452	362.1939	362.1685	362.1389	362.1365	362.1296	362.1309	362.1619	362.1955	362.1933	362.1911	362.202	362.2295	362.3019	362.4229	362.5334	362.5332	362.4944	362.4594	362.4455	362.435	362.3987	362.3341	362.3071	362.3071	362.3071	362.3071	362.3098	362.3811	362.4349	362.4427	362.4409	362.4331
375.5572	375.4756	375.1004	374.8018	374.5442	374.2903	373.9985	373.6563	373.3407	373.0078	372.7151	372.4384	372.1349	371.8073	371.5246	371.286	371.0096	370.6799	370.3266	369.9609	369.5748	369.2121	368.891	368.5851	368.2772	367.9774	367.7014	367.3858	367.0493	366.675	366.2234	365.7394	365.2165	364.8106	364.5935	364.3741	364.1476	363.9173	363.6855	363.4427	363.127	362.5188	362.2714	362.3267	362.033	361.8226	362.4568	362.6444	363.2161	363.9322	364.7712	365.3301	365.6174	365.9912	366.2517	366.2426	366.4632	366.6388	366.7496	366.8293	366.9016	366.9502	366.9762	366.9922	367.007	367.0374	367.1017	367.0055	367.0541	367.0882	367.0848	367.0567	367.0437	366.9967	366.9239	366.8217	366.7676	366.7224	366.6877	366.6382	366.577	366.5329	366.4896	366.4346	366.3663	366.2888	366.2174	366.1688	366.1223	366.0787	366.0532	366.0389	366.0297	365.9974	365.9459	365.9892	365.936	365.9992	366.0308	365.936	365.8413	365.7967	365.7509	365.7317	365.6684	365.5874	365.4996	365.384	365.2656	365.142	365.0216	364.8985	364.7243	364.5309	364.3459	364.1824	364.1376	364.1013	364.0114	363.9366	363.8766	363.8106	363.7496	363.7511	363.7307	363.559	363.3773	363.1744	363.0154	362.9158	362.8254	362.7079	362.6527	362.6586	362.6819	362.7162	362.6546	362.4717	362.208	361.9604	361.7868	361.4996	361.3001	361.1747	361.0493	360.898	360.7209	360.5944	360.556	360.5427	360.5009	360.4627	360.4167	360.4081	360.4011	360.3963	360.3857	360.3987	360.4065	360.4318	360.4783	360.5224	360.5701	360.6263	360.6617	360.7062	360.7159	360.8085	360.8133	360.8647	360.9268	360.974	361.0304	361.0667	361.1284	361.1747	361.2514	361.3302	361.3988	361.4805	361.5367	361.5642	361.6537	361.7167	361.7764	361.8264	361.8437	361.9291	362.0188	362.0891	362.125	362.1404	362.1801	362.2098	362.2593	362.2824	362.308	362.4435	362.4385	362.3976	362.3907	362.3878	362.3683	362.3604	362.3911	362.435	362.4461	362.427	362.4355	362.4618	362.4798	362.4598	362.465	362.4493	362.4511	362.4457	362.4437	362.4669	362.5306	362.6026	362.5816	362.7403	362.4689	361.6452	362.2418	362.4472	362.5831	362.5104	362.3629	362.2979	362.2612	362.243	362.2122	362.1929	362.195	362.2002	362.2189	362.231	362.243	362.2367	362.2637	362.3165	362.4099	362.5188	362.5632	362.5095	362.4764	362.4656	362.4666	362.4679	362.4122	362.3191	362.3071	362.3071	362.3071	362.3071	362.3071	362.3392	362.4102	362.4651	362.4625	362.4742
375.7281	375.6487	375.3676	375.0135	374.7402	374.4731	374.1822	373.8252	373.508	373.164	372.8484	372.5712	372.2786	371.9513	371.6252	371.3629	371.0668	370.7204	370.3537	369.9798	369.6036	369.2286	368.9156	368.614	368.2955	367.9747	367.6713	367.3357	366.949	366.473	366.0161	365.608	365.2124	364.8927	364.6806	364.4673	364.2583	364.0691	363.8221	363.5101	362.9168	362.7862	362.6624	362.495	362.3799	362.045	362.2124	362.7606	363.3039	363.986	364.838	365.482	365.8042	366.2391	366.4459	366.417	366.6371	366.8162	366.9403	367.0299	367.11	367.164	367.1984	367.2204	367.2386	367.2838	367.3464	367.2654	367.3398	367.3676	367.3739	367.3577	367.3382	367.28	367.205	367.1048	367.0675	367.0331	367.0073	366.9584	366.8995	366.8563	366.7923	366.7253	366.653	366.5826	366.4933	366.418	366.3522	366.2872	366.2544	366.2223	366.1999	366.171	366.1671	366.2311	366.1951	366.2612	366.2858	366.1967	366.116	366.0574	366.0114	366.0058	365.9471	365.8617	365.762	365.6402	365.5084	365.3652	365.2117	365.0804	364.9718	364.8516	364.6184	364.4028	364.3214	364.3061	364.2241	364.1631	364.0786	363.9656	363.8745	363.8665	363.8763	363.7892	363.5923	363.3988	363.2228	363.1228	363.0192	362.9367	362.9229	362.9359	363.0529	363.0293	362.8436	362.6126	362.3702	362.1088	361.9258	361.6355	361.4434	361.3282	361.2171	361.0542	360.9117	360.7544	360.7303	360.7087	360.6512	360.584	360.5144	360.4773	360.4684	360.4554	360.4451	360.4494	360.4597	360.4645	360.5059	360.5505	360.5839	360.6206	360.6646	360.6898	360.7043	360.7356	360.8138	360.8687	360.9127	360.9488	361.0074	361.0524	361.0979	361.155	361.2164	361.2804	361.3305	361.4012	361.4516	361.5281	361.607	361.6717	361.7282	361.7976	361.8754	361.9046	361.964	362.0587	362.1946	362.2692	362.3325	362.3498	362.3481	362.38	362.4705	362.5592	362.5558	362.5583	362.5553	362.5248	362.5121	362.5029	362.5352	362.5854	362.5733	362.5646	362.5794	362.5796	362.6039	362.5854	362.5808	362.5434	362.5389	362.532	362.5269	362.5316	362.5595	362.6121	362.6268	362.7693	362.2279	362.1106	362.8838	362.6932	362.6035	362.5512	362.4381	362.3589	362.3358	362.3177	362.2811	362.2531	362.243	362.2514	362.2791	362.2831	362.3257	362.3766	362.4058	362.4432	362.5222	362.5726	362.5594	362.5226	362.4968	362.5009	362.4718	362.467	362.3898	362.3071	362.3071	362.3071	362.3071	362.3071	362.3071	362.3071	362.3709	362.4372	362.4445	362.4744
376.0049	375.7538	375.5952	375.2061	374.9042	374.6255	374.3205	373.975	373.6178	373.2836	372.9509	372.6544	372.3682	372.0578	371.6914	371.3909	371.0888	370.7316	370.3699	370.0027	369.6445	369.2737	368.942	368.6341	368.3073	367.9467	367.5699	367.1028	366.5522	366.2007	365.932	365.6386	365.3164	365.0238	364.8099	364.6172	364.4224	364.1689	363.8642	363.2643	363.2043	363.0531	362.8369	362.6645	362.6489	362.2633	362.1495	362.7954	363.413	364.0847	364.809	365.4902	365.9327	366.3202	366.5196	366.5356	366.7804	366.9691	367.0957	367.1986	367.2998	367.3626	367.4146	367.4475	367.4723	367.5106	367.5905	367.5258	367.5954	367.6305	367.6492	367.6405	367.6201	367.5561	367.4721	367.3683	367.3485	367.3228	367.3042	367.2634	367.2037	367.1519	367.0881	367.012	366.9395	366.8553	366.757	366.6687	366.5996	366.5186	366.4625	366.4165	366.3812	366.3742	366.4037	366.4799	366.4426	366.5004	366.5219	366.4421	366.3512	366.3065	366.2857	366.2426	366.1991	366.1167	366.0108	365.8878	365.7487	365.5963	365.4339	365.2835	365.1486	365.0252	364.8315	364.6341	364.5287	364.506	364.4658	364.3801	364.2675	364.1239	364.0188	363.9755	363.9826	363.9347	363.7019	363.5696	363.4218	363.3369	363.2299	363.127	363.1601	363.2097	363.2906	363.1734	362.9713	362.768	362.5681	362.3008	362.1339	361.8746	361.6487	361.4727	361.3448	361.2014	361.1043	360.9964	360.9261	360.8865	360.8159	360.7147	360.6358	360.6145	360.5593	360.5352	360.5113	360.5149	360.5167	360.532	360.5618	360.5832	360.606	360.6371	360.6844	360.7136	360.737	360.7697	360.7865	360.8383	360.8683	360.9068	360.9774	361.0362	361.0839	361.1458	361.2125	361.2482	361.2729	361.3278	361.367	361.4467	361.5306	361.6098	361.687	361.7746	361.8907	361.9337	361.9918	362.0511	362.1106	362.2892	362.4006	362.4471	362.4436	362.4708	362.5494	362.597	362.6093	362.6299	362.6468	362.6464	362.6401	362.6694	362.6902	362.689	362.6882	362.7355	362.7226	362.704	362.7329	362.7248	362.7089	362.6537	362.6565	362.6558	362.6189	362.6093	362.6482	362.6457	362.6871	362.8001	362.1106	362.1852	362.8321	362.6811	362.6315	362.5496	362.4844	362.4126	362.3764	362.3684	362.3371	362.2965	362.2901	362.301	362.3159	362.3552	362.4108	362.4651	362.5365	362.5893	362.6106	362.5932	362.5348	362.5117	362.5272	362.5258	362.4868	362.4382	362.3853	362.3071	362.3071	362.3071	362.3071	362.3071	362.3071	362.3186	362.3528	362.4281	362.4437	362.4593
376.3011	375.8579	375.7522	375.4054	375.0699	374.7688	374.4384	374.1028	373.7301	373.3871	373.0327	372.7165	372.4283	372.1163	371.7556	371.3907	371.0785	370.7361	370.38	370.0236	369.6677	369.3165	368.9778	368.6341	368.2581	367.8262	367.3202	366.7717	366.4301	366.1866	365.9453	365.7361	365.4474	365.1594	364.9426	364.7616	364.5573	364.2188	363.6558	363.5551	363.352	363.1282	362.9116	362.7832	362.714	362.1495	362.3894	362.8859	363.5154	364.2106	364.759	365.3246	365.9662	366.4045	366.5732	366.6578	366.9182	367.121	367.2449	367.3538	367.4753	367.5475	367.6183	367.6627	367.7026	367.7441	367.8376	367.7752	367.8568	367.897	367.9186	367.9256	367.9074	367.8319	367.7475	367.6662	367.6546	367.6425	367.6352	367.603	367.5564	367.5069	367.4386	367.3526	367.2674	367.1788	367.0652	366.9688	366.8716	366.7763	366.7193	366.6598	366.6214	366.631	366.6582	366.722	366.6947	366.7523	366.7637	366.713	366.6147	366.5774	366.5747	366.5608	366.4996	366.4043	366.3041	366.1986	366.0461	365.8777	365.7325	365.575	365.378	365.2424	365.0661	364.9411	364.8521	364.7932	364.7469	364.6657	364.4689	364.2731	364.1597	364.0819	364.0974	364.0816	363.7995	363.7172	363.6127	363.524	363.4197	363.2859	363.3376	363.4394	363.4752	363.3089	363.1238	362.9445	362.7554	362.5056	362.36	362.1888	361.8959	361.6514	361.4983	361.3738	361.2922	361.2245	361.1461	361.0511	360.968	360.8752	360.8011	360.7481	360.684	360.6106	360.5703	360.5724	360.5877	360.5911	360.6193	360.6272	360.636	360.6588	360.6982	360.7385	360.7628	360.7974	360.8274	360.8787	360.9055	360.9448	361.0002	361.0405	361.0711	361.1074	361.158	361.23	361.2771	361.2993	361.3375	361.3898	361.4664	361.5508	361.6273	361.7081	361.8323	361.9299	362.0065	362.0619	362.1113	362.1588	362.3777	362.4795	362.5251	362.5479	362.5786	362.6138	362.633	362.6568	362.6906	362.7196	362.7593	362.8059	362.8319	362.8207	362.8036	362.8185	362.8448	362.8409	362.8345	362.8304	362.8177	362.78	362.8106	362.8215	362.7259	362.686	362.72	362.7328	362.7382	362.8131	362.1106	362.1106	362.8592	362.6932	362.6565	362.5768	362.5116	362.4948	362.4344	362.4085	362.3958	362.3811	362.3784	362.3876	362.3985	362.4317	362.4848	362.5498	362.6331	362.6397	362.6331	362.6065	362.5679	362.5386	362.5516	362.5247	362.5084	362.4497	362.3869	362.3352	362.3071	362.3071	362.3071	362.3071	362.3071	362.3175	362.3345	362.422	362.4449	362.454
376.5623	376.0165	375.821	375.641	375.2284	374.9036	374.5619	374.2188	373.8392	373.4698	373.1142	372.7686	372.4666	372.1703	371.8167	371.4088	371.0566	370.7253	370.3868	370.0461	369.6908	369.3482	368.9802	368.5699	368.1062	367.5607	367.1004	366.7146	366.4251	366.2379	366.055	365.8471	365.5534	365.2996	365.0943	364.8564	364.5172	364.1241	364.0135	363.7572	363.3931	363.1021	362.9478	362.8704	362.7874	362.2352	362.1495	362.9594	363.6253	364.23	364.7099	365.3086	365.9573	366.3988	366.6093	366.7639	367.0276	367.2502	367.382	367.5138	367.6566	367.7361	367.8254	367.885	367.9403	367.9968	368.0917	368.028	368.1254	368.1664	368.203	368.2224	368.2106	368.1284	368.0335	367.9702	367.971	367.9649	367.9701	367.9498	367.9068	367.8579	367.7899	367.703	367.6059	367.4998	367.3771	367.27	367.1609	367.0673	367.0192	366.9546	366.9336	366.9218	366.9406	366.9933	366.9865	367.0308	367.0476	366.9936	366.9049	366.8544	366.8584	366.8131	366.7376	366.673	366.583	366.4702	366.3383	366.1622	365.968	365.7592	365.5964	365.4791	365.3492	365.2407	365.1172	365.0458	364.9703	364.8727	364.64	364.4257	364.2863	364.1969	364.2087	364.2038	363.9816	363.8714	363.813	363.7017	363.5927	363.4646	363.5175	363.6286	363.6025	363.4314	363.2971	363.1282	362.9507	362.7006	362.5488	362.4073	362.1597	361.8916	361.7412	361.6278	361.5345	361.4701	361.3614	361.2536	361.1254	361.0094	360.9256	360.8676	360.787	360.7036	360.672	360.6708	360.6702	360.6592	360.6588	360.6602	360.6651	360.7005	360.7267	360.7553	360.774	360.8181	360.851	360.8975	360.9428	360.9887	361.0417	361.0721	361.0981	361.1272	361.1603	361.2107	361.2267	361.2716	361.3476	361.3758	361.4266	361.4846	361.5585	361.6524	361.7789	361.8784	361.9186	362.0168	362.0946	362.1667	362.3174	362.5097	362.5756	362.5869	362.6253	362.6561	362.6736	362.6954	362.7361	362.7735	362.8139	362.8578	362.9056	362.9394	362.944	362.9199	362.9326	362.9463	362.9485	362.9238	362.919	362.9209	362.9749	362.9876	362.8498	362.7838	362.8502	362.9214	362.8934	362.8505	362.5833	362.1106	362.843	362.7556	362.721	362.6481	362.6022	362.6091	362.5799	362.5479	362.5649	362.5648	362.5709	362.5894	362.5827	362.5641	362.5727	362.6029	362.667	362.6681	362.6358	362.5822	362.573	362.5884	362.5454	362.5703	362.5227	362.4633	362.3794	362.381	362.3071	362.3071	362.3071	362.3071	362.3071	362.3134	362.3413	362.4101	362.4455	362.4951
376.8131	376.2528	375.9238	375.82	375.4227	375.0461	374.6972	374.3331	373.9615	373.5609	373.2022	372.8353	372.4937	372.1891	371.8625	371.4575	371.0441	370.6979	370.3734	370.0403	369.6831	369.3147	368.9019	368.3905	367.8405	367.4059	367.116	366.7775	366.5157	366.3442	366.196	366.0065	365.7232	365.5197	365.2867	364.8077	364.4766	364.5455	364.2288	363.8689	363.431	363.1439	363.0009	362.9533	362.8614	362.5948	362.1495	362.829	363.6646	364.1739	364.7167	365.3309	365.9523	366.4409	366.7106	366.8676	367.1362	367.3749	367.513	367.6755	367.8337	367.9434	368.0534	368.121	368.2019	368.2789	368.3683	368.3244	368.4258	368.4646	368.5106	368.5511	368.5497	368.4815	368.38	368.3098	368.3232	368.3295	368.3419	368.3267	368.2898	368.2384	368.171	368.0733	367.9699	367.8463	367.7153	367.6076	367.5063	367.434	367.4022	367.3611	367.3314	367.2981	367.3012	367.3173	367.2984	367.3398	367.3587	367.3167	367.2386	367.1762	367.0994	366.9921	366.9193	366.8344	366.7739	366.6685	366.5076	366.3342	366.1392	365.955	365.8364	365.702	365.5715	365.4628	365.3076	365.2518	365.1543	364.9851	364.7316	364.5774	364.4173	364.3335	364.313	364.29	364.1722	364.01	363.9901	363.8793	363.7589	363.6685	363.7274	363.7758	363.7082	363.5503	363.4505	363.3228	363.1562	362.9335	362.7578	362.6185	362.4377	362.2157	362.0795	361.9295	361.821	361.7254	361.6145	361.4932	361.3465	361.22	361.1237	361.0457	360.9788	360.8768	360.8047	360.7929	360.7656	360.7446	360.7175	360.7032	360.7017	360.7362	360.7816	360.8018	360.8056	360.8423	360.8749	360.9261	360.9779	361.0078	361.0587	361.0918	361.1279	361.1573	361.1912	361.2257	361.2397	361.3066	361.3292	361.3885	361.3961	361.4711	361.5492	361.6518	361.7729	361.8261	361.8941	361.9554	362.0805	362.188	362.2866	362.4972	362.6057	362.636	362.6776	362.6863	362.699	362.7317	362.7781	362.8158	362.8469	362.886	362.936	362.9641	363.025	363.0345	363.0266	363.0216	363.0246	363.0341	363.0517	363.0663	363.1189	363.1013	362.972	362.891	362.9947	363.0434	362.9966	362.9712	362.8784	362.1106	362.7871	362.8295	362.8075	362.8258	362.8596	362.9324	362.9591	362.9677	362.9633	362.9726	362.9888	363.0055	362.9523	362.8986	362.8338	362.763	362.7226	362.701	362.6602	362.6106	362.6094	362.6016	362.5454	362.5589	362.5257	362.4947	362.4395	362.389	362.353	362.3071	362.3071	362.3071	362.3071	362.3538	362.3954	362.4187	362.4476	362.5112
377.0256	376.5258	376.0135	375.841	375.5782	375.1884	374.8241	374.4493	374.0699	373.6606	373.2711	372.8895	372.5118	372.2076	371.8925	371.5015	371.0747	370.6634	370.3207	369.9865	369.6057	369.1885	368.6967	368.1154	367.7791	367.5053	367.2214	366.9335	366.696	366.5125	366.3194	366.1405	365.9343	365.6931	365.1471	365.0121	364.9974	364.7381	364.4356	364.0451	363.4985	363.1908	363.1629	363.0748	362.9824	362.6048	362.2048	362.9726	363.6516	364.1356	364.7144	365.3145	365.9202	366.47	366.7819	366.9528	367.2309	367.4692	367.6274	367.8	367.9885	368.1229	368.254	368.3445	368.4488	368.5358	368.6496	368.6107	368.7067	368.7376	368.8087	368.8696	368.8993	368.8424	368.7534	368.7133	368.7208	368.7366	368.7572	368.7499	368.708	368.6506	368.574	368.4612	368.3373	368.206	368.0636	367.9469	367.8434	367.7955	367.772	367.7477	367.7306	367.6932	367.6544	367.6205	367.5739	367.6218	367.6401	367.5992	367.5435	367.4654	367.3825	367.3053	367.1904	367.0908	367.0149	366.8978	366.7145	366.5121	366.3128	366.1538	366.0238	365.8695	365.7361	365.6151	365.4633	365.407	365.2933	365.075	364.8796	364.7445	364.5542	364.4895	364.4464	364.3726	364.3565	364.1976	364.1081	364.0451	363.954	363.8653	363.9359	363.9073	363.8004	363.6573	363.5673	363.4852	363.3637	363.1972	363.0483	362.868	362.7287	362.5382	362.4353	362.2863	362.118	361.952	361.8583	361.743	361.6112	361.4907	361.3718	361.2894	361.2006	361.0945	360.9917	360.9443	360.8907	360.8156	360.7788	360.7465	360.7658	360.788	360.8245	360.8513	360.8528	360.8824	360.9069	360.9502	360.9925	361.0179	361.0849	361.1169	361.1416	361.1862	361.22	361.2655	361.2828	361.3309	361.3654	361.4254	361.4433	361.5021	361.5344	361.6248	361.7299	361.7894	361.869	361.9698	362.0485	362.1207	362.2831	362.5287	362.7424	362.713	362.7319	362.74	362.7285	362.7612	362.8168	362.8618	362.9014	362.9265	362.9677	363.0018	363.0587	363.1425	363.1221	363.1071	363.0901	363.0918	363.128	363.1678	363.2022	363.2122	363.0791	362.9767	363.1282	363.2016	363.1729	363.1919	363.1158	362.1106	362.3901	363.0252	363.0302	363.1518	363.3006	363.3549	363.3887	363.4547	363.483	363.481	363.4823	363.4324	363.3756	363.2893	363.1861	363.0381	362.9592	362.887	362.8117	362.7136	362.6678	362.5815	362.5971	362.5475	362.5356	362.4851	362.4924	362.4263	362.3935	362.3328	362.3071	362.3176	362.3441	362.3723	362.4276	362.4482	362.4823	362.5322
377.1927	376.7324	376.1661	375.8945	375.6906	375.3187	374.9323	374.552	374.1546	373.7334	373.3174	372.9271	372.5401	372.2139	371.9064	371.5382	371.1124	370.6492	370.2633	369.884	369.4498	368.9637	368.4536	368.0708	367.8528	367.6018	367.3246	367.1129	366.8871	366.6889	366.4918	366.2789	366.0525	365.5093	365.4623	365.4279	365.1817	364.8867	364.6718	364.2805	363.6801	363.3141	363.2446	363.121	362.8302	362.4878	362.6215	363.3474	363.6195	364.1018	364.7156	365.3346	365.9119	366.479	366.8106	367.0336	367.2986	367.5436	367.7024	367.8954	368.1008	368.2657	368.4156	368.5276	368.6395	368.7522	368.8735	368.8431	368.9477	368.9848	369.0546	369.135	369.1893	369.156	369.071	369.0335	369.0524	369.0733	369.1059	369.0968	369.0578	368.9841	368.8915	368.768	368.6327	368.4802	368.3272	368.2003	368.105	368.0648	368.0523	368.0438	368.0177	367.9789	367.9489	367.8911	367.7915	367.8334	367.8726	367.829	367.782	367.7052	367.6226	367.5404	367.4286	367.3175	367.2155	367.0925	366.8958	366.683	366.4913	366.321	366.1776	366.0111	365.8809	365.7496	365.5811	365.5163	365.4051	365.1824	365.0251	364.8982	364.7166	364.6392	364.5394	364.4605	364.4863	364.3399	364.2153	364.1784	364.1317	364.0586	364.0791	363.9742	363.8437	363.7285	363.6347	363.5923	363.5218	363.4081	363.2879	363.1291	363.0052	362.8867	362.7718	362.6274	362.4519	362.2884	362.1504	362.0398	361.8965	361.7572	361.6222	361.4945	361.3594	361.237	361.119	361.0448	360.9846	360.9087	360.8578	360.8466	360.8728	360.8828	360.9174	360.9435	360.9366	360.9431	360.9564	360.9835	361.0138	361.0502	361.1152	361.163	361.1887	361.2159	361.2476	361.2864	361.3368	361.3625	361.3975	361.4578	361.4912	361.5324	361.5735	361.6095	361.6857	361.7835	361.8713	361.9896	362.0698	362.1476	362.2456	362.4384	362.8549	362.8299	362.7648	362.8044	362.7907	362.7928	362.8562	362.9082	362.9418	362.9731	363.0074	363.0554	363.1091	363.2031	363.2504	363.2269	363.1973	363.177	363.1828	363.2448	363.3204	363.3226	363.1887	363.1372	363.338	363.5261	363.5048	363.5542	363.4694	362.5142	362.1106	363.3741	363.6855	363.7648	363.7818	363.8063	363.7817	363.7546	363.7028	363.6541	363.6257	363.6111	363.6117	363.6049	363.572	363.4861	363.3277	363.1381	363.0078	362.8962	362.811	362.702	362.6045	362.595	362.5504	362.514	362.5011	362.4823	362.434	362.3965	362.394	362.3954	362.4071	362.4327	362.4857	362.5065	362.5303	362.5739
377.3649	376.9371	376.4113	375.9623	375.7933	375.4793	375.0534	374.6454	374.2392	373.8137	373.3736	372.978	372.5899	372.2522	371.9131	371.5762	371.1443	370.6823	370.196	369.7192	369.2178	368.7979	368.5038	368.1838	367.9856	367.7354	367.4815	367.2305	367.0732	366.896	366.7381	366.3598	365.9958	366.0065	365.9431	365.7136	365.456	365.1604	364.8671	364.5652	363.907	363.4465	363.3456	363.1861	363.0095	362.7326	362.908	363.6169	363.6958	364.1161	364.7462	365.3828	365.9399	366.5251	366.8731	367.0862	367.3539	367.6063	367.7788	367.9882	368.2118	368.4072	368.5807	368.7213	368.8514	368.9756	369.1198	369.0901	369.2028	369.2441	369.324	369.4087	369.4965	369.4928	369.4016	369.3503	369.3817	369.4284	369.4597	369.4642	369.418	369.3269	369.2266	369.0856	368.9287	368.7639	368.6048	368.4772	368.3956	368.3843	368.3969	368.4022	368.395	368.3728	368.3374	368.2437	368.0617	368.0797	368.1341	368.1031	368.0298	367.9696	367.905	367.827	367.702	367.5892	367.4682	367.3221	367.1095	366.9019	366.7281	366.5076	366.3703	366.2036	366.0722	365.9286	365.7493	365.6622	365.5471	365.3438	365.2095	365.0762	364.8872	364.7262	364.64	364.6088	364.6197	364.5739	364.4438	364.3835	364.3266	364.3058	364.2497	364.0736	363.9265	363.8238	363.744	363.6966	363.6759	363.6255	363.5621	363.4881	363.3795	363.2688	363.1151	362.9886	362.8326	362.6876	362.5725	362.4456	362.3078	362.159	362.0356	361.9009	361.7593	361.6028	361.4861	361.3876	361.2892	361.1467	361.0668	361.0347	361.0412	361.083	361.0827	361.1062	361.0493	361.0471	361.0393	361.0677	361.0832	361.1038	361.1641	361.2024	361.2186	361.2437	361.305	361.3354	361.3852	361.432	361.4568	361.4909	361.5402	361.5728	361.6038	361.6426	361.6768	361.7731	361.8822	362.0126	362.0964	362.1808	362.2604	362.3774	362.5394	362.8593	362.9048	362.9032	362.8947	362.8804	362.9315	362.9606	362.9913	363.0487	363.0937	363.1207	363.1805	363.2709	363.3283	363.3341	363.3167	363.3035	363.2985	363.3465	363.4269	363.4187	363.3654	363.466	363.6949	363.9741	363.9682	364.0534	363.9908	363.4065	362.1613	363.4447	363.9771	363.8542	363.6179	363.3345	363.2032	363.1323	363.0224	362.9474	362.9474	362.9474	363.0053	363.1222	363.1492	363.348	363.4646	363.4442	363.3337	363.2427	363.1201	362.879	362.6903	362.6452	362.5939	362.5192	362.4973	362.5042	362.4884	362.4728	362.4641	362.4499	362.4629	362.4794	362.5002	362.5551	362.5798	362.6488
377.5144	377.1175	376.64	376.092	375.834	375.5744	375.1616	374.7453	374.3266	373.8911	373.4546	373.0406	372.6737	372.289	371.9418	371.5862	371.1516	370.6826	370.1285	369.4891	369.1047	368.8537	368.6115	368.3514	368.1626	367.9154	367.6595	367.4498	367.3215	367.1425	366.7442	366.3136	366.5125	366.4482	366.2836	366.0592	365.8226	365.5526	365.1813	364.8094	364.2764	363.6075	363.5208	363.4353	363.3545	363.1667	362.8211	363.5529	363.797	364.1306	364.7589	365.416	366.0144	366.5799	366.9633	367.1101	367.3985	367.6434	367.8311	368.0629	368.303	368.5282	368.7267	368.8904	369.0368	369.1768	369.3245	369.3262	369.4351	369.492	369.5634	369.6627	369.7899	369.8069	369.7431	369.7099	369.7491	369.8056	369.8306	369.8282	369.7862	369.6814	369.5615	369.4103	369.2373	369.071	368.9111	368.7889	368.7464	368.7713	368.7984	368.8203	368.8155	368.7939	368.7373	368.6332	368.4067	368.3672	368.4115	368.3848	368.319	368.2705	368.2169	368.1375	368.007	367.8849	367.7492	367.5879	367.3525	367.1498	366.9492	366.724	366.582	366.4153	366.2774	366.1301	365.9394	365.8319	365.7297	365.5191	365.388	365.2662	365.0558	364.8783	364.7597	364.7477	364.7386	364.7583	364.6605	364.5681	364.5046	364.4888	364.3568	364.1609	364.0121	363.916	363.857	363.7941	363.7668	363.745	363.7169	363.697	363.6232	363.503	363.3428	363.243	363.109	362.9722	362.8435	362.7255	362.5874	362.4183	362.2829	362.1349	361.988	361.8087	361.6698	361.5922	361.4725	361.3396	361.3127	361.29	361.3008	361.3325	361.2696	361.2408	361.176	361.1599	361.154	361.1606	361.1557	361.1862	361.2038	361.245	361.2776	361.324	361.3699	361.3987	361.4364	361.4987	361.5202	361.5595	361.5953	361.6184	361.6479	361.6769	361.7131	361.7891	361.895	362.0108	362.1312	362.2079	362.2949	362.4049	362.4627	362.5648	362.771	362.969	363.0431	363.0769	363.1041	363.0983	363.0938	363.133	363.2146	363.2491	363.3074	363.3694	363.4192	363.4333	363.4185	363.4316	363.4166	363.4362	363.5718	363.6895	363.8919	364.0674	364.2142	364.2765	364.2289	364.1526	364.0697	363.8304	362.2561	362.5142	362.9626	362.9474	362.9474	362.9474	362.9474	362.9474	362.9474	362.9474	362.9474	362.9474	362.9474	362.9474	362.9474	362.9474	362.9474	363.0435	363.3117	363.3602	363.2928	363.0705	362.8729	362.72	362.6649	362.5689	362.5608	362.53	362.506	362.5277	362.5202	362.5176	362.4789	362.5205	362.5417	362.6086	362.6232	362.7012
377.6721	377.288	376.8339	376.2886	375.874	375.6666	375.3053	374.844	374.4181	373.9788	373.5742	373.1501	372.7407	372.348	371.9278	371.5167	371.0838	370.5827	369.9845	369.4284	369.1665	368.9572	368.7604	368.5405	368.3442	368.148	367.9413	367.7526	367.5376	366.9438	366.862	367.0544	366.8997	366.7794	366.671	366.5069	366.2562	365.9472	365.5646	365.0816	364.5801	363.9209	363.7646	363.6351	363.5316	363.342	362.8211	363.4243	363.9343	364.1906	364.7374	365.3483	365.9762	366.5781	366.9386	367.1491	367.4125	367.6725	367.8818	368.1333	368.3995	368.6583	368.8797	369.0531	369.2156	369.3815	369.5439	369.5643	369.6798	369.746	369.8189	369.9328	370.087	370.1289	370.0841	370.1008	370.154	370.2067	370.2296	370.2155	370.1424	370.0375	369.9084	369.7383	369.5556	369.3859	369.247	369.1548	369.1564	369.2124	369.2608	369.2902	369.2878	369.2635	369.1781	369.0581	368.8137	368.707	368.761	368.7416	368.7067	368.6455	368.5923	368.4915	368.3638	368.2217	368.084	367.9101	367.6617	367.4423	367.2152	366.9941	366.8433	366.6653	366.5198	366.3658	366.1567	366.0442	365.9279	365.7099	365.579	365.4091	365.1935	365.0386	364.8943	364.886	364.8234	364.8839	364.8909	364.7501	364.6642	364.6406	364.4426	364.2793	364.1221	364.0374	363.9811	363.935	363.9063	363.882	363.8651	363.8492	363.8008	363.7611	363.6109	363.565	363.4679	363.3505	363.2048	363.072	362.9154	362.7668	362.6196	362.4562	362.2887	362.1047	361.9617	361.8569	361.742	361.6399	361.6059	361.5702	361.5479	361.5028	361.4662	361.4579	361.3854	361.3631	361.3243	361.2928	361.277	361.2601	361.2711	361.3028	361.3362	361.3698	361.4331	361.4729	361.5201	361.5823	361.6233	361.6804	361.6998	361.6983	361.7115	361.7433	361.7806	361.8295	361.9146	362.0172	362.1224	362.2311	362.3504	362.4381	362.4748	362.5336	362.5905	362.6925	362.8953	363.162	363.253	363.3196	363.3518	363.3543	363.3665	363.3831	363.4276	363.4574	363.4978	363.5101	363.5097	363.5115	363.5005	363.544	363.8924	364.1597	364.2631	364.3305	364.2863	364.1617	363.7889	363.2993	363.0198	362.7109	362.4911	362.2561	363.0084	362.9474	362.9474	362.9474	362.9474	362.95	362.9474	362.9474	362.9474	362.9474	362.9474	362.9474	362.9474	362.9474	362.9474	362.9474	362.9474	362.979	363.2361	363.2525	363.1271	362.8984	362.7347	362.6231	362.6022	362.5696	362.5432	362.5629	362.5926	362.5923	362.557	362.5448	362.5754	362.6534	362.6953	362.7145
377.8109	377.4144	376.9888	376.4812	375.9427	375.7208	375.4016	374.9336	374.5013	374.0852	373.6703	373.2308	372.8129	372.3305	371.843	371.3797	370.9209	370.4604	369.9636	369.4991	369.28	369.0628	368.8755	368.6777	368.4959	368.3407	368.1552	367.8804	367.3918	367.3298	367.4835	367.3958	367.2207	367.0814	366.9749	366.8178	366.5403	366.1989	365.8476	365.3625	364.797	364.2089	363.7946	363.7586	363.6712	363.0442	363.1281	363.1424	364.1086	364.254	364.7397	365.3314	365.9148	366.5136	366.9287	367.1379	367.4261	367.6863	367.9275	368.1897	368.4864	368.7638	369.0091	369.1905	369.3634	369.5447	369.7031	369.7539	369.8829	369.9565	370.0407	370.1646	370.3322	370.3901	370.3583	370.4125	370.476	370.5193	370.5335	370.5074	370.4261	370.3091	370.1649	369.9913	369.8036	369.6349	369.5134	369.449	369.4939	369.5684	369.6217	369.6534	369.6541	369.6277	369.5292	369.4161	369.1698	369.0364	369.1135	369.0989	369.0698	369.0092	368.9387	368.8064	368.676	368.5236	368.3827	368.1998	367.9444	367.7032	367.4618	367.2321	367.0733	366.8922	366.7486	366.584	366.3611	366.2408	366.0938	365.8816	365.7516	365.5391	365.3364	365.1626	365.0207	364.9626	364.8857	364.945	365.0414	364.8768	364.7971	364.7111	364.5226	364.389	364.2431	364.1556	364.1086	364.0656	364.0538	364.0347	364.0069	363.9793	363.9476	363.9549	363.8469	363.8379	363.7654	363.6717	363.5231	363.3771	363.2263	363.0898	362.9413	362.7932	362.6058	362.4032	362.2773	362.1573	362.0221	361.9484	361.8819	361.8006	361.7489	361.7051	361.6803	361.7084	361.6522	361.5684	361.478	361.4213	361.3917	361.4034	361.3544	361.3555	361.4035	361.4638	361.5124	361.5423	361.6063	361.6849	361.7317	361.7822	361.8077	361.7997	361.7865	361.7997	361.8306	361.87	361.9388	362.0251	362.1219	362.253	362.3983	362.468	362.4963	362.5362	362.5826	362.6464	362.7436	362.9154	363.0863	363.2505	363.3849	363.571	363.625	363.6076	363.565	363.5868	363.609	363.5827	363.5697	363.6048	363.601	363.6885	364.3499	364.4482	364.39	364.2587	363.7467	362.984	362.7687	362.7487	362.7283	362.7625	362.8353	362.2561	362.7205	363.037	362.9799	363.0094	363.0331	363.0282	362.9914	362.9474	362.9474	362.9474	362.9474	362.9474	362.9474	362.9474	362.9474	362.9474	362.9474	362.9474	362.9474	363.1124	363.2383	363.1538	362.9008	362.77	362.663	362.6646	362.6566	362.603	362.6585	362.6554	362.6416	362.6891	362.6842	362.7168	362.716	362.7684
377.9773	377.5568	377.1644	376.6909	376.1015	375.7421	375.5021	375.0485	374.6411	374.2034	373.7585	373.3145	372.7737	372.21	371.6565	371.2185	370.8366	370.4598	370.0909	369.6684	369.4306	369.2003	369.001	368.8279	368.6634	368.5083	368.2192	367.6917	367.907	368.0325	367.8774	367.7504	367.6136	367.3916	367.2148	367.0552	366.7765	366.4376	366.097	365.6771	365.138	364.669	364.1636	363.9928	363.7721	363.1441	363.2026	363.2957	363.8101	364.3614	364.6364	365.2196	365.8211	366.4238	366.8893	367.1512	367.4183	367.7109	367.9729	368.2701	368.587	368.8965	369.1448	369.3499	369.545	369.7406	369.9139	369.9857	370.1303	370.2251	370.318	370.4506	370.6282	370.7196	370.7223	370.7786	370.8589	370.9113	370.914	370.8663	370.7712	370.6339	370.4814	370.2864	370.1091	369.9503	369.8546	369.8536	369.9249	370.0185	370.0684	370.1089	370.1169	370.0976	369.9935	369.8827	369.6741	369.5369	369.5953	369.6005	369.5616	369.4794	369.3714	369.2361	369.073	368.907	368.7391	368.5538	368.2844	368.0176	367.7743	367.5223	367.3688	367.1747	367.0309	366.8524	366.6266	366.4765	366.3121	366.1039	366.0032	365.7899	365.5273	365.3368	365.1918	365.095	365.004	365.0515	365.193	365.0469	364.9676	364.8187	364.6508	364.522	364.4139	364.323	364.2869	364.267	364.2621	364.2571	364.2275	364.1807	364.1302	364.1746	364.103	364.125	364.0888	364.008	363.8855	363.7488	363.6276	363.5017	363.3701	363.2479	363.0617	362.843	362.7147	362.5895	362.4252	362.312	362.2081	362.0869	362.0349	361.9854	361.9597	362.0111	362.0022	361.901	361.7329	361.6433	361.5961	361.5558	361.5404	361.516	361.5757	361.5773	361.64	361.7164	361.7774	361.8356	361.8769	361.9433	361.9705	361.9817	361.9453	361.9137	361.9262	361.9501	362.0015	362.0733	362.1736	362.2916	362.4524	362.5182	362.5448	362.5752	362.6165	362.6696	362.7706	362.9226	363.0388	363.1131	363.2272	363.4179	363.5639	363.739	363.8156	363.7558	363.7681	363.6761	363.6782	363.7097	363.9365	364.4146	364.4966	364.3535	363.7979	363.0481	362.8907	362.8204	362.7665	362.742	362.7299	362.7608	362.8125	362.371	362.2561	362.9521	363.1303	363.1029	363.1004	363.127	363.0735	363	362.9474	362.9474	362.9474	362.9474	362.9474	362.9474	362.9474	362.9474	362.9474	362.9474	362.9474	362.9474	362.9747	363.2042	363.1334	362.929	362.8156	362.7808	362.7701	362.7216	362.7271	362.7303	362.7423	362.7833	362.8434	362.8352	362.764	362.7861
378.1284	377.7013	377.2854	376.8596	376.3306	375.8415	375.5766	375.1707	374.743	374.3088	373.7924	373.2054	372.6103	372.0034	371.5312	371.152	370.8318	370.539	370.2166	369.8637	369.5545	369.298	369.1169	368.9699	368.8191	368.5147	368.0717	368.3819	368.4218	368.2918	368.1184	367.9544	367.789	367.5997	367.3593	367.1539	366.895	366.6256	366.3101	365.9415	365.3741	364.9584	364.5121	364.1845	363.9399	363.5395	363.3609	363.5537	363.4325	364.0004	364.5578	365.0864	365.7228	366.3268	366.8094	367.0959	367.4174	367.7133	368.0053	368.3309	368.6623	368.9991	369.2683	369.4997	369.7052	369.9174	370.0974	370.2053	370.3499	370.4631	370.5751	370.7117	370.9174	371.0313	371.0559	371.1324	371.2294	371.2999	371.3002	371.2283	371.1154	370.9678	370.8187	370.6479	370.4697	370.3374	370.2672	370.2953	370.3858	370.4796	370.5371	370.5784	370.5854	370.5665	370.4789	370.3762	370.2017	370.0468	370.1172	370.0955	370.0344	369.9258	369.7782	369.6279	369.4378	369.2617	369.0721	368.8706	368.5898	368.3036	368.048	367.814	367.6344	367.4373	367.282	367.1003	366.875	366.6993	366.5148	366.334	366.2261	366.0135	365.7483	365.5526	365.395	365.2424	365.152	365.1823	365.3686	365.2741	365.0911	364.9032	364.7796	364.6572	364.5792	364.5159	364.4786	364.4808	364.484	364.4663	364.4355	364.3927	364.3378	364.3652	364.3163	364.3479	364.3372	364.2761	364.175	364.059	363.9612	363.8688	363.7738	363.6798	363.5175	363.3065	363.1626	363.019	362.8703	362.753	362.6021	362.4437	362.3691	362.3148	362.2879	362.287	362.2285	362.1752	362.0298	361.9069	361.8161	361.7664	361.7527	361.6926	361.731	361.7608	361.8168	361.8642	361.9548	362.0054	362.0834	362.1698	362.2014	362.1947	362.1359	362.0921	362.0583	362.0853	362.1339	362.1479	362.2559	362.4328	362.5673	362.6479	362.6626	362.6801	362.7057	362.7693	362.8841	363.0186	363.1255	363.1978	363.2321	363.3303	363.4981	363.7613	364.0585	364.2206	364.2956	364.3302	364.3098	364.5109	364.5974	364.4668	363.9576	363.324	363.0898	362.8915	362.7678	362.7299	362.7299	362.7299	362.7299	362.7313	362.7955	362.494	362.8043	362.2561	362.9787	363.27	363.2546	363.2221	363.15	363.0916	362.9868	362.9474	362.9474	362.9474	362.9474	362.9474	362.9474	362.9474	362.9474	362.9474	362.9474	362.9474	362.9474	362.9474	363.1828	363.1016	362.979	362.9207	362.8539	362.8159	362.8161	362.8642	362.9188	362.9281	362.9063	362.8751	362.8537	362.8871
378.2714	377.8421	377.4113	376.9855	376.5031	375.9738	375.6041	375.2152	374.7953	374.2657	373.6121	372.9821	372.3697	371.8788	371.5011	371.1528	370.8974	370.6166	370.3299	370.0093	369.7094	369.4567	369.2834	369.1312	368.7653	368.5655	368.752	368.7114	368.5535	368.459	368.3146	368.1178	367.939	367.7159	367.4541	367.25	367.008	366.7526	366.4678	366.1329	365.7494	365.1366	364.722	364.3772	363.982	363.6723	363.7028	363.6893	363.7752	363.6713	364.318	364.9667	365.6461	366.254	366.7963	367.1111	367.4422	367.7372	368.0515	368.3873	368.7478	369.098	369.3934	369.6505	369.8756	370.0929	370.2819	370.4035	370.5756	370.7096	370.8426	370.9755	371.1852	371.3172	371.3695	371.4578	371.5594	371.6308	371.6214	371.5449	371.4233	371.2799	371.1287	370.9713	370.8106	370.705	370.6764	370.7321	370.8179	370.9001	370.9581	371.0029	371.0044	370.9884	370.9092	370.8195	370.6779	370.5693	370.6228	370.5847	370.5059	370.3566	370.1738	369.9911	369.7803	369.5793	369.3792	369.1663	368.8643	368.5713	368.3012	368.0447	367.8786	367.6764	367.5143	367.331	367.0926	366.9071	366.7314	366.5494	366.4796	366.2884	366.0394	365.8286	365.6377	365.4605	365.372	365.3962	365.4977	365.4098	365.2188	365.0568	364.9307	364.8138	364.7516	364.6967	364.6804	364.6811	364.6953	364.6817	364.6488	364.6014	364.5513	364.5568	364.5258	364.564	364.5484	364.5121	364.43	364.3454	364.2737	364.2046	364.1408	364.0858	363.9613	363.7826	363.6295	363.477	363.335	363.2399	363.0988	362.9328	362.8378	362.7836	362.7425	362.6165	362.4758	362.4294	362.3418	362.2626	362.154	362.048	361.9815	361.9277	361.9367	361.9557	361.9892	362.0403	362.1405	362.2166	362.3784	362.4604	362.4887	362.4959	362.3675	362.2422	362.1985	362.2657	362.2916	362.3546	362.5045	362.6361	362.732	362.8246	362.8426	362.874	362.8819	362.9135	363.0405	363.1347	363.2314	363.2899	363.3342	363.4286	363.5283	363.659	363.97	364.2366	364.5647	364.7336	364.7108	364.6173	364.456	364.0588	363.5692	363.2431	362.9879	362.8216	362.7299	362.7299	362.7299	362.7299	362.7299	362.7299	362.7989	362.6986	362.8631	362.7401	362.2561	362.3954	362.3954	362.6115	363.075	363.1828	363.054	362.9474	362.9474	362.9474	362.9474	362.9474	362.9474	362.9474	362.9474	362.9474	362.9474	362.9474	362.9474	362.9474	362.9682	363.1906	363.0988	363.0493	362.9698	362.912	362.9422	362.9719	362.9691	362.9816	362.9658	362.9506	362.9624	362.9744
378.409	377.9758	377.5328	377.0778	376.6201	376.1038	375.5732	375.1937	374.7313	374.07	373.3977	372.7918	372.2463	371.7894	371.513	371.2096	370.9542	370.6966	370.4259	370.1129	369.8592	369.6561	369.4354	369.0081	368.9786	369.1364	369.0506	368.8587	368.749	368.6519	368.5183	368.2798	368.0588	367.8212	367.5457	367.3202	367.0907	366.8519	366.6021	366.2727	365.8003	365.2296	364.8666	364.5213	364.0747	364.246	364.0409	363.9141	364.1082	364.0528	363.7383	364.9512	365.6329	366.2302	366.7741	367.1313	367.4742	367.7845	368.1136	368.4596	368.8358	369.2163	369.5298	369.802	370.0469	370.2791	370.4742	370.6254	370.8114	370.9637	371.0973	371.2526	371.4669	371.616	371.6648	371.7714	371.877	371.9578	371.9418	371.8583	371.733	371.6001	371.4543	371.3033	371.1714	371.0864	371.1019	371.1755	371.2516	371.3268	371.3803	371.4314	371.444	371.4357	371.3796	371.2964	371.1814	371.1187	371.1536	371.0823	370.9535	370.7876	370.5766	370.3694	370.1362	369.9064	369.6884	369.4598	369.1488	368.8401	368.5506	368.2854	368.1198	367.9182	367.7469	367.5724	367.3221	367.1312	366.9619	366.7726	366.6884	366.5392	366.335	366.14	365.9463	365.7528	365.6621	365.6644	365.6357	365.5683	365.3685	365.2019	365.1277	365.0122	364.9574	364.9087	364.8961	364.8953	364.9075	364.9112	364.8741	364.8202	364.7747	364.7659	364.7271	364.7604	364.7389	364.7196	364.6431	364.5842	364.5332	364.4893	364.4636	364.4288	364.3343	364.2	364.0629	363.91	363.774	363.6759	363.5452	363.4174	363.3575	363.3028	363.2069	363.0579	362.9229	362.8277	362.718	362.6251	362.5109	362.3893	362.2845	362.2218	362.2031	362.1993	362.1677	362.209	362.2904	362.4383	362.5801	362.6665	362.734	362.8089	362.6752	362.4655	362.417	362.4724	362.5466	362.6785	362.8152	362.884	362.9391	362.994	363.0187	363.0842	363.0875	363.1089	363.201	363.2747	363.3559	363.4007	363.4859	363.5894	363.7693	364.0551	364.3648	364.6655	364.7966	364.6975	364.3096	364.3594	364.2766	363.5559	363.4306	363.2236	362.8546	362.7299	362.7299	362.7299	362.7299	362.7299	362.7299	362.7299	362.8058	362.8434	362.6986	362.9016	363.0945	363.0047	363.1922	362.4287	362.4287	362.8754	363.177	363.0328	362.9474	362.9474	362.9474	362.9474	362.9474	362.9474	362.9474	362.9474	362.9474	362.9474	362.9474	362.9474	362.9479	363.0338	363.2134	363.155	363.1042	363.0264	363.0403	363.041	363.0452	363.0674	363.0637	363.0323	363.0487	363.0688
378.5061	378.074	377.6099	377.147	376.6777	376.1738	375.5829	375.0916	374.4749	373.7752	373.1666	372.6184	372.1842	371.8912	371.5892	371.3084	371.0556	370.8063	370.5207	370.235	370.0057	369.8672	369.3479	369.4417	369.4913	369.3184	369.1789	369.1014	368.9742	368.8407	368.6864	368.423	368.1672	367.8915	367.6307	367.3836	367.1627	366.9426	366.6993	366.3683	365.879	365.3031	364.9684	364.7176	364.5547	364.5258	364.537	364.4544	364.4977	364.4334	363.9076	364.6702	365.6904	366.251	366.7514	367.1495	367.5143	367.8524	368.1849	368.5484	368.9333	369.3288	369.6589	369.9486	370.2092	370.4447	370.657	370.8507	371.0397	371.2058	371.3585	371.5142	371.7424	371.9073	371.9726	372.0984	372.2253	372.2934	372.2744	372.1971	372.0833	371.9612	371.8388	371.7086	371.6065	371.5662	371.62	371.7022	371.7858	371.8615	371.911	371.9369	371.9381	371.9336	371.881	371.7725	371.6931	371.6443	371.6397	371.529	371.3754	371.1881	370.9567	370.7174	370.4724	370.2307	369.9861	369.748	369.4116	369.0892	368.8007	368.5345	368.3551	368.1516	367.9819	367.8152	367.5584	367.3605	367.1992	367.0023	366.9105	366.7928	366.5896	366.42	366.2643	366.1115	365.9614	365.9189	365.7978	365.7545	365.5633	365.4167	365.3083	365.2486	365.1845	365.1325	365.123	365.1155	365.1177	365.1348	365.0974	365.0437	364.9741	364.9665	364.9351	364.9698	364.9409	364.9165	364.8705	364.832	364.7986	364.7708	364.7722	364.7741	364.6953	364.6005	364.508	364.3677	364.2344	364.1413	364.0338	363.9268	363.8529	363.7706	363.6793	363.5622	363.4606	363.3525	363.2107	363.0815	362.9341	362.8041	362.6943	362.6141	362.5525	362.4828	362.4539	362.5022	362.5736	362.6438	362.7231	362.8041	362.8872	362.9626	363.0144	362.9252	362.8065	362.8122	362.8644	363.0061	363.1236	363.1816	363.231	363.2581	363.2428	363.2724	363.2873	363.3278	363.3791	363.4662	363.5186	363.5845	363.7393	364.0352	364.4041	364.6842	364.8623	364.7948	364.4508	364.0511	364.0511	364.1695	364.1618	363.5609	363.4236	363.132	362.7789	362.7299	362.7299	362.7299	362.7299	362.7299	362.7299	362.7299	362.7813	362.8736	362.6986	362.8131	362.8161	362.9503	363.1366	363.293	362.8865	362.4287	363.2384	363.0893	362.9474	362.9474	362.9474	362.9474	362.9474	362.9474	362.9474	362.9474	362.9474	362.9474	362.9474	362.9474	363.0295	362.9834	363.1836	363.2152	363.235	363.1495	363.1017	363.1484	363.1403	363.1374	363.1318	363.1137	363.1279	363.1221
378.5632	378.1108	377.6295	377.1395	376.6404	376.1245	375.5154	374.9094	374.1716	373.5794	373.0289	372.5625	372.2712	372.0337	371.693	371.4157	371.1541	370.8971	370.6421	370.3418	369.9484	370.026	369.9542	369.9	369.7393	369.6119	369.5417	369.3964	369.2048	369.0264	368.8394	368.5678	368.2582	367.9871	367.7376	367.476	367.259	367.0622	366.7921	366.4415	366.0085	365.4707	365.2517	364.9266	364.7196	364.6976	364.7083	364.7368	364.8104	364.8228	364.1144	364.9119	365.8138	366.3415	366.8191	367.163	367.5307	367.8909	368.2355	368.594	369.0022	369.415	369.7727	370.0807	370.3606	370.619	370.8408	371.0702	371.2655	371.4571	371.6313	371.8055	372.0399	372.2224	372.3295	372.4816	372.609	372.6541	372.6355	372.5604	372.4535	372.3364	372.2351	372.1613	372.1003	372.1218	372.1604	372.205	372.2714	372.3392	372.3734	372.3766	372.3848	372.3907	372.3647	372.2957	372.1955	372.1236	372.0872	371.9641	371.7639	371.5785	371.3261	371.0699	370.8058	370.549	370.2919	370.0363	369.6893	369.3523	369.0647	368.7851	368.6036	368.4006	368.2376	368.0748	367.8159	367.6249	367.4654	367.2675	367.211	367.1184	366.9364	366.756	366.6465	366.4561	366.3031	366.2163	366.0008	365.9727	365.7869	365.6484	365.5603	365.4903	365.4361	365.3871	365.3664	365.3482	365.3465	365.3522	365.3262	365.2828	365.1989	365.1615	365.1396	365.1785	365.1501	365.1311	365.1091	365.0823	365.0648	365.0496	365.0751	365.086	365.0354	364.9684	364.9102	364.7835	364.6738	364.5938	364.5037	364.4048	364.3037	364.2219	364.1346	364.0233	363.9169	363.8056	363.6548	363.5082	363.3438	363.1941	363.0802	362.983	362.9217	362.8604	362.8135	362.8581	362.8984	362.9113	362.9158	362.9675	363.0119	363.0789	363.1402	363.1891	363.2189	363.1994	363.1996	363.2778	363.3628	363.4111	363.4808	363.5063	363.4744	363.484	363.5267	363.5573	363.6092	363.7061	363.8633	364.1246	364.4802	364.7777	364.9214	364.8862	364.6086	364.1934	364.0511	364.0511	364.0511	364.0674	364.0297	363.596	363.362	363.0109	362.7299	362.7299	362.7299	362.7299	362.7299	362.7299	362.7299	362.7299	362.754	362.8584	362.7042	362.785	362.758	362.8661	363.0367	363.2035	363.379	362.4287	363.1595	363.1235	362.9632	362.9474	362.9474	362.9474	362.9474	362.9474	362.9474	362.9474	362.9474	362.9474	362.9474	362.9474	362.9657	363.1662	363.0581	363.3011	363.2364	363.265	363.1911	363.1861	363.2101	363.1953	363.1962	363.2156	363.2336	363.1393
378.5405	378.0421	377.5251	376.9992	376.4702	375.922	375.3378	374.6852	373.9667	373.4305	372.993	372.6624	372.4225	372.1648	371.8765	371.5753	371.3074	371.078	370.8141	370.2407	370.131	370.2804	370.147	370.0327	369.9665	369.8973	369.8392	369.7654	369.4821	369.2359	368.994	368.7087	368.3872	368.101	367.8407	367.5869	367.3609	367.1659	366.9022	366.59	366.1968	365.6532	365.4484	365.2138	364.884	364.8465	364.8581	364.8892	364.9162	365.0169	364.7971	364.7286	365.9848	366.4603	366.8726	367.1867	367.5289	367.899	368.2387	368.5997	369.0142	369.4495	369.8396	370.1716	370.483	370.7669	371.0209	371.2251	371.4409	371.648	371.8394	372.0591	372.3119	372.5154	372.637	372.7783	372.887	372.9452	372.9263	372.8561	372.7625	372.6678	372.5713	372.5136	372.4782	372.5004	372.5376	372.5686	372.6092	372.6466	372.6797	372.685	372.6886	372.7069	372.7092	372.6808	372.6577	372.5403	372.4668	372.3216	372.1278	371.9281	371.6752	371.4185	371.146	370.8788	370.6158	370.3329	369.9755	369.6302	369.3343	369.0524	368.8593	368.6515	368.4869	368.3283	368.0728	367.8954	367.74	367.5407	367.5102	367.4077	367.2469	367.0997	366.9707	366.7828	366.6969	366.5495	366.2566	366.1992	366.0289	365.9187	365.8378	365.76	365.7037	365.6485	365.6161	365.5905	365.5794	365.5728	365.5514	365.5189	365.4481	365.3668	365.353	365.3952	365.3805	365.3715	365.3672	365.3599	365.3566	365.356	365.3901	365.4184	365.3824	365.3393	365.2931	365.1872	365.1041	365.0483	364.9576	364.8614	364.7756	364.705	364.6254	364.5153	364.3896	364.2648	364.0995	363.9436	363.7854	363.6382	363.5095	363.3963	363.3099	363.2757	363.1863	363.2112	363.2327	363.1812	363.1774	363.2061	363.2281	363.2543	363.2926	363.3373	363.3928	363.4776	363.5257	363.5272	363.5669	363.6743	363.7628	363.7686	363.7414	363.7384	363.813	363.8836	364.0259	364.2872	364.6057	364.9097	365.0424	364.9833	364.6721	364.4183	364.1978	364.1378	364.0511	364.0511	364.0511	364.0511	364.0428	363.6387	363.2761	362.8787	362.7299	362.7299	362.7299	362.7299	362.7299	362.7299	362.7299	362.7299	362.7529	362.8729	362.804	362.7269	362.8193	362.9182	363.0876	363.2845	363.1709	362.4287	363.3694	363.2518	363.0434	362.9474	362.9474	362.9474	362.9474	362.9474	362.9474	362.9474	362.9474	362.9474	362.9474	362.9474	362.9813	363.2051	363.1843	363.2243	363.3204	363.3255	363.2916	363.2286	363.2508	363.2572	363.2749	363.329	363.2585	363.1779
378.3772	377.8459	377.2857	376.7374	376.2065	375.654	375.0446	374.4193	373.8494	373.399	373.0673	372.8047	372.6103	372.4099	372.1069	371.8453	371.5511	371.2338	370.7192	370.6164	370.6785	370.5744	370.4416	370.3686	370.2993	370.1999	370.0836	369.9767	369.7244	369.3966	369.1066	368.8313	368.5412	368.2464	367.9731	367.7269	367.4906	367.284	367.0678	366.7456	366.3778	365.8502	365.5819	365.3997	365.0652	364.9864	364.9728	365.0131	365.0522	365.1375	365.2254	364.7286	365.9409	366.4999	366.9164	367.2216	367.4969	367.871	368.2241	368.5831	368.994	369.44	369.8563	370.2338	370.5673	370.8725	371.1314	371.3135	371.6018	371.8124	372.0171	372.2811	372.5652	372.7858	372.8784	373.0052	373.1447	373.1958	373.1707	373.0995	373.0105	372.9268	372.8499	372.7885	372.7553	372.7645	372.7911	372.8221	372.8521	372.8862	372.9101	372.9219	372.9424	372.9763	373.0309	373.0394	373.0716	372.9111	372.8401	372.6897	372.5039	372.2756	372.0519	371.7825	371.5098	371.2337	370.9698	370.6684	370.2878	369.9255	369.6252	369.3422	369.1281	368.9005	368.7328	368.5723	368.3204	368.16	367.9987	367.8194	367.7861	367.6743	367.5299	367.3755	367.2606	367.1601	367.1242	366.8918	366.5139	366.4135	366.298	366.2111	366.1288	366.0449	365.9783	365.9182	365.8742	365.8349	365.8123	365.7996	365.7768	365.7475	365.6742	365.5839	365.5852	365.6438	365.6465	365.6618	365.6714	365.6876	365.6948	365.7083	365.7531	365.7897	365.7675	365.7398	365.7074	365.6052	365.5202	365.4777	365.4044	365.3177	365.2303	365.1502	365.0738	364.9713	364.8534	364.7262	364.568	364.4244	364.2763	364.1371	364.0004	363.8781	363.78	363.7295	363.6641	363.6241	363.5636	363.5138	363.5094	363.5276	363.543	363.5608	363.57	363.5867	363.629	363.6727	363.7279	363.7871	363.832	363.9632	364.031	364.1056	364.066	364.0753	364.2196	364.4801	364.8127	365.0811	365.1707	365.1052	364.7998	364.4976	364.3913	364.3432	364.2511	364.1656	364.0661	364.0511	364.0511	364.0764	364.05	363.6463	363.1679	362.8002	362.7299	362.7299	362.7299	362.7299	362.7299	362.7299	362.7299	362.7299	362.7612	362.8799	362.9018	362.7269	362.8721	362.9686	363.1285	363.3561	362.8525	362.4287	363.3786	363.3755	363.2061	363.0304	362.9474	362.9474	362.9474	362.9474	362.9474	362.9474	362.9474	362.9474	362.9474	362.9474	363.0556	363.2029	363.3244	363.1843	363.4131	363.3138	363.422	363.358	363.3083	363.3377	363.3752	363.3428	363.2872	363.2397
378.0866	377.5028	376.932	376.3757	375.8362	375.3412	374.814	374.3078	373.8593	373.5165	373.2343	373.0016	372.8458	372.647	372.3894	372.0923	371.5248	371.0468	371.1943	371.1752	371.1376	371.0485	370.9134	370.8025	370.6532	370.4871	370.2952	370.1042	369.8244	369.5165	369.254	368.9988	368.7387	368.4377	368.1375	367.8895	367.6608	367.4447	367.2278	366.9571	366.594	366.0741	365.7345	365.5838	365.2801	365.1342	365.0768	365.104	365.1528	365.2178	365.4893	364.8466	365.9106	366.482	366.9148	367.2639	367.471	367.8173	368.187	368.5421	368.9523	369.4196	369.8559	370.2634	370.6243	370.96	371.2504	371.4686	371.7518	372.0124	372.2335	372.4944	372.7744	373.0032	373.1829	373.2774	373.4051	373.4694	373.4458	373.3634	373.2784	373.1932	373.131	373.0747	373.0448	373.0456	373.0607	373.0801	373.1066	373.1258	373.1534	373.1669	373.2035	373.2648	373.3622	373.4119	373.4666	373.3009	373.2414	373.0885	372.8884	372.6586	372.4521	372.1838	371.9045	371.6248	371.357	371.0352	370.63	370.259	369.9587	369.6608	369.4259	369.1776	369.0047	368.8377	368.5791	368.4397	368.2668	368.104	368.0741	367.9796	367.8662	367.6725	367.5716	367.5602	367.5447	367.2409	366.8167	366.6214	366.6343	366.5365	366.4569	366.3752	366.3007	366.2257	366.1617	366.1128	366.0824	366.0565	366.0233	365.9834	365.9176	365.8354	365.8258	365.8922	365.9042	365.933	365.9669	365.997	366.0197	366.0457	366.0859	366.1418	366.1243	366.1018	366.0792	365.9843	365.8947	365.8499	365.7907	365.7159	365.6546	365.5641	365.4561	365.3466	365.2484	365.1408	365.0164	364.889	364.7436	364.6107	364.4706	364.3495	364.2554	364.1834	364.1437	364.0378	363.9861	363.8931	363.848	363.8617	363.8632	363.8683	363.8712	363.8721	363.8873	363.9036	363.9346	363.9704	364.0457	364.1953	364.3454	364.4348	364.4528	364.6046	364.856	365.1516	365.3003	365.231	365.1068	364.7307	364.5551	364.5063	364.4012	364.3345	364.2754	364.227	364.1452	364.084	364.0683	364.1385	364.0583	363.6292	363.1684	362.7848	362.7299	362.7299	362.7299	362.7299	362.7299	362.7299	362.7299	362.7299	362.7627	362.8912	362.9301	362.7269	362.8502	362.9188	363.0847	363.3067	363.2173	362.4287	362.5067	363.33	363.4302	363.2402	363.0733	362.9741	362.9474	362.9474	362.9474	362.9474	362.9474	362.9474	362.9474	362.9474	363.0443	363.2241	363.2984	363.3394	363.3224	363.4532	363.4164	363.434	363.3669	363.3885	363.4187	363.3571	363.3149	363.2802
377.6627	377.0565	376.4905	375.933	375.4267	375.0332	374.6597	374.3129	374.0343	373.7563	373.5181	373.3207	373.1332	372.9072	372.5732	371.7963	371.6147	371.8015	371.844	371.8102	371.7428	371.6176	371.4262	371.2214	370.979	370.7402	370.5264	370.2612	370.0461	369.7442	369.445	369.1696	368.9132	368.6167	368.335	368.0809	367.8736	367.6429	367.3993	367.147	366.8135	366.3752	365.9316	365.7626	365.4919	365.2904	365.206	365.2194	365.2538	365.2858	365.5296	365.3518	365.7021	366.4237	366.9118	367.2962	367.4621	367.8183	368.1605	368.5078	368.9326	369.4066	369.8614	370.3001	370.6796	371.0582	371.3574	371.6367	371.9038	372.1604	372.4125	372.6832	372.9853	373.2819	373.435	373.5396	373.6795	373.7453	373.714	373.6261	373.5265	373.441	373.3792	373.3285	373.3	373.3052	373.3137	373.3056	373.3284	373.3585	373.3914	373.4224	373.4865	373.5695	373.6978	373.8147	373.8567	373.6975	373.6336	373.49	373.2903	373.0863	372.8436	372.5823	372.3118	372.039	371.7563	371.422	370.9994	370.6268	370.3307	370.0068	369.7592	369.4975	369.3216	369.1335	368.8772	368.7419	368.5576	368.4041	368.4229	368.3257	368.181	367.946	367.8572	367.9034	367.9053	367.6022	367.178	366.9674	366.959	366.9153	366.8307	366.7456	366.6667	366.5842	366.5069	366.4484	366.3954	366.3475	366.2993	366.2654	366.2065	366.1252	366.1184	366.195	366.2204	366.272	366.3337	366.3763	366.4225	366.4544	366.5001	366.552	366.5437	366.5284	366.5032	366.4185	366.3409	366.2867	366.2325	366.1497	366.0853	366.003	365.8893	365.7764	365.6724	365.5785	365.4856	365.3946	365.2764	365.1689	365.0399	364.935	364.8425	364.7809	364.769	364.6505	364.5512	364.4148	364.3176	364.2776	364.2543	364.2483	364.2451	364.2237	364.2351	364.247	364.2749	364.2845	364.2886	364.4343	364.6844	364.89	365.1034	365.339	365.4274	365.3546	365.1159	364.9454	364.9454	364.8155	364.6496	364.5345	364.4576	364.3948	364.3576	364.333	364.2508	364.1669	364.1442	364.1917	364.0882	363.6802	363.2589	362.8449	362.7299	362.7299	362.7299	362.7299	362.7299	362.7299	362.7299	362.7299	362.7792	362.9212	362.9661	362.7618	362.8804	362.9013	362.9736	363.1404	363.299	363.2793	362.7198	362.5067	363.0322	363.5421	363.2667	363.1026	362.9869	362.9474	362.9474	362.9474	362.9474	362.9474	362.9474	362.9537	363.0063	363.2357	363.3156	363.4023	363.3224	363.5259	363.4243	363.5317	363.4565	363.4899	363.4192	363.3976	363.3708	363.3108
377.2552	376.6215	376.0304	375.6773	375.3631	375.0401	374.707	374.4207	374.2245	373.9253	373.7321	373.5848	373.319	372.8958	372.1631	372.2473	372.4109	372.4773	372.4453	372.3816	372.2701	372.0738	371.8109	371.5453	371.3017	371.0898	370.8341	370.561	370.3358	370.0383	369.6924	369.3642	369.0708	368.8145	368.5241	368.2845	368.0833	367.8451	367.5834	367.3338	367.032	366.6427	366.1288	365.9483	365.741	365.5061	365.3885	365.357	365.3806	365.4206	365.534	365.693	365.6714	366.205	366.8733	367.3376	367.4865	367.8326	368.1655	368.4944	368.9204	369.3999	369.8774	370.3357	370.7407	371.1464	371.4733	371.7768	372.0572	372.3205	372.5847	372.8717	373.2008	373.4948	373.6077	373.7369	373.8871	373.9593	373.9264	373.8406	373.7259	373.6245	373.562	373.5222	373.4986	373.5107	373.5159	373.5208	373.5385	373.5692	373.6227	373.6783	373.7692	373.8874	374.0446	374.1795	374.1367	374.0074	373.9456	373.8058	373.5984	373.394	373.1494	372.8894	372.6248	372.3556	372.0725	371.7447	371.3176	370.9628	370.6613	370.3319	370.076	369.8056	369.6102	369.3978	369.1468	369.0169	368.8239	368.6685	368.6704	368.5121	368.4146	368.2155	368.1192	368.1534	368.1505	367.9211	367.5064	367.2641	367.2452	367.2542	367.1846	367.0974	366.9994	366.9179	366.8449	366.7622	366.6883	366.6336	366.5764	366.5371	366.4567	366.387	366.3911	366.472	366.5247	366.5915	366.6613	366.7331	366.7893	366.8284	366.8669	366.9079	366.9002	366.8826	366.8635	366.7853	366.7163	366.663	366.6007	366.512	366.44	366.3493	366.2426	366.1534	366.0609	365.9767	365.8791	365.8086	365.7152	365.6201	365.5278	365.4473	365.3664	365.2922	365.2692	365.1742	365.0459	364.8792	364.7516	364.6861	364.6249	364.5955	364.5826	364.5678	364.5941	364.5988	364.6022	364.5929	364.6848	364.9768	365.2724	365.4926	365.5794	365.5155	365.3038	365.1159	365.1337	365.2256	365.1582	364.9348	364.7761	364.6608	364.5712	364.5697	364.534	364.4661	364.3675	364.2568	364.2286	364.2417	364.1153	363.7364	363.33	362.9626	362.7299	362.7299	362.7299	362.7299	362.7299	362.7299	362.7299	362.7299	362.7866	362.9339	363.0022	362.8582	362.8877	362.921	362.9266	363.0161	363.1101	363.1816	363.3353	362.9394	362.5067	363.5318	363.5205	363.2483	363.1149	363.0269	362.9474	362.9474	362.9474	362.9474	362.9474	362.9813	363.0288	363.1831	363.3605	363.4181	363.5059	363.3948	363.6002	363.4904	363.5954	363.5695	363.4431	363.4465	363.4303	363.4037
376.8206	376.2124	375.7787	375.5927	375.4192	375.1282	374.8304	374.6236	374.41	374.1218	373.8962	373.7304	373.1588	372.8113	372.931	373.0533	373.1154	373.113	373.0864	372.963	372.7551	372.4839	372.2035	371.9889	371.7451	371.4261	371.1004	370.7873	370.5394	370.2281	369.9205	369.5828	369.2478	368.9781	368.7506	368.5206	368.3059	368.0972	367.8375	367.5558	367.2854	366.9257	366.3589	366.1224	366.0045	365.7434	365.6084	365.5164	365.5016	365.5235	365.6156	365.9886	365.7064	365.9488	366.6638	367.2887	367.5054	367.8644	368.1815	368.5081	368.9283	369.3966	369.8868	370.3597	370.7985	371.2299	371.5713	371.9062	372.2006	372.4761	372.7566	373.0562	373.3986	373.7134	373.829	373.9609	374.1212	374.2131	374.1971	374.1058	373.971	373.8594	373.7901	373.7447	373.7273	373.7216	373.7242	373.7462	373.7812	373.8309	373.8986	373.9925	374.1077	374.2552	374.4082	374.5136	374.4869	374.3202	374.2665	374.1174	373.9234	373.7072	373.4763	373.2166	372.9507	372.6921	372.4089	372.0817	371.6807	371.3324	371.0297	370.693	370.4324	370.1457	369.9115	369.6791	369.4389	369.3042	369.1071	368.9473	368.9266	368.7973	368.6961	368.5396	368.415	368.4179	368.4044	368.2314	367.8706	367.539	367.5283	367.5792	367.5477	367.4676	367.3665	367.2883	367.2004	367.1058	367.0247	366.9656	366.8965	366.8406	366.7571	366.6794	366.6856	366.7815	366.8432	366.9313	367.0247	367.1008	367.1654	367.2054	367.2563	367.2756	367.259	367.2437	367.218	367.1306	367.0677	367.0203	366.9518	366.8741	366.7856	366.6814	366.5811	366.5067	366.4298	366.347	366.2659	366.1915	366.1182	366.0603	366.0101	365.9775	365.9355	365.8831	365.8645	365.7343	365.5854	365.4197	365.2497	365.1474	365.0758	364.9992	364.9667	364.925	364.927	364.9574	365.0094	365.1859	365.4261	365.655	365.7503	365.678	365.4399	365.3038	365.338	365.4654	365.4703	365.4556	365.3249	365.1369	364.9566	364.851	364.7895	364.767	364.6951	364.6029	364.4985	364.3717	364.3153	364.2967	364.1748	363.8557	363.4802	363.0216	362.7373	362.7299	362.7299	362.7299	362.7299	362.7299	362.7299	362.7299	362.7925	362.923	363.0294	362.9972	362.9386	362.9296	362.921	362.9749	363.007	363.0667	363.1689	363.3221	362.7793	362.5947	363.1997	363.5003	363.3033	363.1849	363.1123	363.0212	363.0252	363.0052	362.9599	363.0152	363.0811	363.1235	363.3662	363.4437	363.537	363.4201	363.6443	363.5493	363.6697	363.6281	363.5326	363.5022	363.4973	363.4944
376.5617	376.1241	375.851	375.6713	375.5145	375.2361	375.0097	374.8287	374.5498	374.3065	374.0193	373.485	373.3664	373.5609	373.6138	373.6758	373.7151	373.7177	373.6136	373.4518	373.2059	372.942	372.727	372.449	372.059	371.6635	371.2928	370.9893	370.7428	370.3901	370.0872	369.8126	369.4931	369.2071	368.9888	368.7637	368.5743	368.3592	368.1198	367.8482	367.5647	367.2487	366.7237	366.3348	366.1958	365.9633	365.7933	365.6976	365.6608	365.659	365.7116	365.9868	365.792	366.0251	366.4566	367.2444	367.5359	367.9037	368.2139	368.5287	368.942	369.397	369.8932	370.3763	370.8359	371.2908	371.6471	372.0284	372.3342	372.6297	372.9189	373.23	373.598	373.9124	374.0348	374.182	374.3561	374.4673	374.4668	374.3768	374.2209	374.1	374.013	373.956	373.9343	373.9323	373.9426	373.9731	374.018	374.0909	374.18	374.3075	374.432	374.5821	374.7332	374.8499	374.8312	374.6474	374.5914	374.4467	374.2544	374.0489	373.824	373.5753	373.3223	373.0504	372.7836	372.4651	372.0712	371.726	371.4198	371.071	370.8017	370.4901	370.2268	369.9834	369.7502	369.6037	369.4127	369.2479	369.1978	369.0896	369.0364	368.9185	368.7594	368.7264	368.7046	368.5472	368.2326	367.8705	367.8215	367.9015	367.8824	367.8232	367.7344	367.6411	367.55	367.4652	367.3844	367.3213	367.2488	367.1724	367.0843	366.9986	366.996	367.0996	367.1732	367.2756	367.3867	367.4827	367.5444	367.5794	367.6152	367.6271	367.6083	367.5781	367.5518	367.473	367.4211	367.3665	367.3105	367.2337	367.1442	367.0467	366.9586	366.8761	366.8043	366.7398	366.673	366.6058	366.5461	366.5049	366.4788	366.4633	366.4501	366.4065	366.3888	366.2545	366.061	365.8967	365.765	365.6578	365.5434	365.4188	365.3677	365.2692	365.2996	365.4677	365.6674	365.8899	365.9825	365.8976	365.659	365.4503	365.4812	365.6734	365.6927	365.7005	365.6811	365.5938	365.5147	365.3464	365.2512	365.1591	365.0744	364.959	364.8512	364.7416	364.6369	364.5014	364.4087	364.3612	364.1993	363.902	363.5518	363.0788	362.753	362.7299	362.7299	362.7299	362.7299	362.7299	362.7299	362.7362	362.7879	362.9244	363.0304	363.0587	363.0822	362.979	362.9333	362.9456	362.9683	363.0127	363.0737	363.2238	363.4649	363.1651	362.5947	363.5051	363.5325	363.3126	363.2414	363.1489	363.088	363.084	363.0215	363.054	363.1539	363.1686	363.2987	363.47	363.5495	363.5952	363.5195	363.7612	363.6877	363.7776	363.6715	363.5602	363.5793	363.5781
376.5411	376.2015	375.9722	375.7718	375.6092	375.3823	375.1763	374.9606	374.7058	374.3454	373.8705	373.9436	374.0949	374.0874	374.1295	374.2499	374.2975	374.2257	374.0721	373.869	373.639	373.3551	373.0587	372.7204	372.2939	371.9009	371.5419	371.2495	371.0063	370.5772	370.2357	369.9764	369.7279	369.4243	369.1953	368.998	368.8177	368.6327	368.4053	368.1259	367.8233	367.5525	367.0482	366.4891	366.3205	366.2025	366.0042	365.8767	365.8016	365.7997	365.8339	366.0648	365.9749	366.1425	366.4418	367.2397	367.5896	367.9304	368.257	368.5628	368.9669	369.4068	369.9018	370.3873	370.8607	371.3328	371.7076	372.119	372.4488	372.7611	373.0566	373.3737	373.7655	374.0659	374.2344	374.3527	374.5305	374.6601	374.6894	374.6015	374.4405	374.2897	374.1864	374.1258	374.1045	374.1044	374.1199	374.1696	374.2342	374.3258	374.4359	374.5753	374.7069	374.8573	375.016	375.1625	375.135	374.9352	374.8925	374.7458	374.5714	374.3704	374.1495	373.9245	373.6785	373.4132	373.1498	372.8394	372.4561	372.0932	371.7871	371.4239	371.143	370.8195	370.5385	370.3022	370.0651	369.8984	369.712	369.5431	369.499	369.3778	369.305	369.2664	369.1024	369.036	369.0278	368.8664	368.6205	368.2491	368.1456	368.2346	368.2068	368.1399	368.0502	367.9592	367.8783	367.796	367.7232	367.6644	367.5834	367.4982	367.4065	367.3119	367.3095	367.4427	367.5176	367.644	367.7685	367.8832	367.9436	367.9631	367.9766	367.9794	367.9579	367.9213	367.893	367.8221	367.7787	367.7297	367.6926	367.6129	367.5148	367.4214	367.3396	367.2593	367.186	367.1313	367.0838	367.0244	366.975	366.949	366.9353	366.9203	366.8954	366.8564	366.8268	366.6998	366.5341	366.4005	366.2184	366.0605	365.9132	365.7524	365.7184	365.7946	366.0029	366.1685	366.2457	366.1416	365.8797	365.659	365.6797	365.811	365.8635	365.8813	365.8948	365.8976	365.8614	365.826	365.7996	365.662	365.4966	365.4091	365.2754	365.112	364.9763	364.8873	364.7778	364.5896	364.4716	364.4584	364.2437	363.9549	363.5621	363.1191	362.7969	362.7299	362.7299	362.7299	362.7299	362.7299	362.7341	362.7644	362.8064	362.9302	363.0381	363.0708	362.979	363.02	362.9659	362.9924	363.0068	363.0226	363.059	363.1436	363.289	363.4932	362.5947	362.9557	363.6955	363.452	363.355	363.267	363.1554	363.1235	363.1026	363.0783	363.1532	363.2348	363.2761	363.4488	363.5763	363.655	363.578	363.8116	363.9006	363.8912	363.8096	363.6667	363.6606	363.6368
376.6222	376.3483	376.1006	375.9143	375.7616	375.551	375.3467	375.1341	374.6388	374.34	374.6247	374.6341	374.72	374.776	374.8068	374.899	374.8784	374.7481	374.5533	374.3589	374.08	373.7328	373.3361	372.9489	372.5734	372.217	371.8429	371.5073	371.199	370.8031	370.4537	370.1745	369.9704	369.6823	369.4601	369.2576	369.1031	368.9427	368.6911	368.3629	368.0808	367.8174	367.3785	366.7764	366.5294	366.4503	366.2348	366.0704	365.9712	365.9558	365.9843	366.1631	366.2422	366.2794	366.5802	367.2887	367.644	367.9808	368.3044	368.597	368.9817	369.4131	369.8949	370.3846	370.8559	371.3563	371.7511	372.1943	372.5511	372.8828	373.2004	373.5345	373.9436	374.2483	374.4508	374.5542	374.7311	374.8824	374.9409	374.8584	374.6984	374.5491	374.429	374.3581	374.3251	374.3307	374.3653	374.4423	374.5276	374.6288	374.7613	374.9292	375.0618	375.2186	375.3826	375.5043	375.4678	375.2976	375.2386	375.086	374.9254	374.7325	374.526	374.3159	374.0881	373.8384	373.5602	373.2658	372.8886	372.519	372.1848	371.8218	371.5466	371.217	370.9126	370.6747	370.4366	370.2485	370.0564	369.8872	369.8244	369.6481	369.6013	369.6209	369.5128	369.4549	369.4358	369.2446	369.0573	368.6887	368.5424	368.6033	368.5723	368.4857	368.394	368.3253	368.2571	368.1793	368.1132	368.0711	367.9828	367.8874	367.7774	367.6922	367.6711	367.7666	367.8546	367.9864	368.1111	368.2429	368.295	368.3032	368.309	368.2945	368.286	368.2289	368.1948	368.121	368.0527	368.0146	367.9567	367.881	367.8155	367.7349	367.6562	367.5712	367.5141	367.4607	367.4067	367.3595	367.3117	367.2836	367.244	367.2062	367.1577	367.1123	367.0675	366.9674	366.8269	366.633	366.4735	366.3063	366.1677	366.2004	366.3374	366.4825	366.5645	366.4661	366.1924	365.8772	365.8772	366.001	366.0352	366.0578	366.0535	366.0462	366.047	366.0746	366.0617	366.0317	366.0058	365.9432	365.7751	365.6041	365.4317	365.256	365.1053	365.0165	364.8845	364.6668	364.5336	364.5506	364.2781	364.0099	363.5773	363.1432	362.8404	362.7299	362.7299	362.7299	362.7299	362.7395	362.7625	362.7949	362.8589	362.9321	363.0543	363.0822	362.979	363.0419	363.0239	363.0414	363.0419	363.0646	363.0873	363.1286	363.2327	363.4097	363.2784	362.5947	363.6887	363.6711	363.4783	363.3591	363.2562	363.1702	363.1497	363.1034	363.156	363.2456	363.2653	363.3876	363.5834	363.6949	363.8	363.7355	363.9476	363.825	363.9648	363.8278	363.7128	363.7302
376.806	376.5401	376.3069	376.1296	375.9185	375.7066	375.4729	374.9351	375.0224	375.1856	375.3214	375.3792	375.4384	375.5418	375.4868	375.4194	375.3287	375.1693	374.9244	374.6585	374.3824	374.0009	373.5689	373.1754	372.8171	372.4635	372.0855	371.7141	371.4016	371.0559	370.7267	370.4135	370.1809	370.0123	369.7536	369.5444	369.3688	369.1747	368.9224	368.6176	368.3191	368.0539	367.7067	367.1355	366.6912	366.7073	366.5328	366.2809	366.1589	366.1098	366.1328	366.2418	366.5508	366.2731	366.7001	367.3484	367.6616	368.0168	368.3503	368.6313	368.9997	369.4147	369.8868	370.3646	370.8378	371.3427	371.7466	372.2268	372.6012	372.9539	373.2982	373.6457	374.0762	374.4001	374.6288	374.7314	374.9243	375.0838	375.1656	375.1024	374.9595	374.8158	374.6975	374.6143	374.5802	374.5927	374.6241	374.7108	374.8273	374.9653	375.104	375.274	375.4196	375.59	375.7507	375.8384	375.7898	375.6229	375.5573	375.4077	375.2544	375.079	374.8836	374.6863	374.4669	374.228	373.9597	373.6838	373.2982	372.9256	372.5804	372.221	371.9407	371.614	371.2964	371.0394	370.8062	370.6009	370.4157	370.2238	370.1653	370.0158	369.9139	369.9126	369.8841	369.8533	369.7989	369.6431	369.4292	369.0674	368.9636	368.9583	368.8961	368.8374	368.755	368.6836	368.6281	368.5697	368.5113	368.4834	368.4061	368.3221	368.222	368.1145	368.0727	368.1465	368.2238	368.3448	368.4646	368.5806	368.6359	368.6398	368.6385	368.6255	368.6061	368.5457	368.4968	368.4251	368.3374	368.2776	368.2096	368.1552	368.0358	367.9431	367.8728	367.809	367.7787	367.7639	367.7263	367.7048	367.6883	367.6664	367.6392	367.5984	367.5238	367.4419	367.3151	367.1621	366.9961	366.8326	366.7118	366.6789	366.7317	366.8333	366.9171	366.8129	366.5758	366.1924	366.2642	366.3411	366.3821	366.3182	366.2819	366.2672	366.2253	366.235	366.2285	366.2314	366.2171	366.216	366.1833	366.1442	366.049	365.8263	365.5925	365.4261	365.2438	365.1268	364.9823	364.7629	364.5933	364.6432	364.3098	364.0176	363.5457	363.1679	362.9482	362.8358	362.7454	362.731	362.7376	362.7676	362.8086	362.8484	362.8994	362.961	363.0569	363.1095	363.0528	363.0314	363.0982	363.0984	363.0845	363.0759	363.1018	363.1479	363.2021	363.3822	363.6331	362.6856	362.5947	363.3147	363.6302	363.4926	363.4203	363.3135	363.2809	363.2672	363.2658	363.3099	363.3628	363.4162	363.5504	363.7043	363.8365	363.9494	364.0237	363.9026	364.0693	363.9537	363.8147	363.8121
377.073	376.7877	376.542	376.3134	376.0566	375.7379	375.4695	375.5775	375.7455	375.8228	375.9857	376.1249	376.2506	376.198	376.077	375.8569	375.7357	375.4975	375.1708	374.8163	374.5256	374.1821	373.8012	373.4143	373.069	372.7124	372.3674	372.0109	371.6677	371.3697	371.0333	370.6962	370.4318	370.3048	370.0275	369.8043	369.6381	369.452	369.2038	368.9003	368.5839	368.3016	368.0033	367.5089	366.9395	366.8578	366.8182	366.5554	366.3892	366.3064	366.2823	366.3371	366.5813	366.3499	366.7925	367.4187	367.6965	368.0616	368.385	368.6703	369.0197	369.4162	369.8695	370.325	370.7896	371.2769	371.6767	372.1741	372.5751	372.9565	373.3238	373.6854	374.1208	374.4834	374.7416	374.8995	375.0997	375.2797	375.3749	375.3295	375.2121	375.0919	374.982	374.8946	374.8577	374.8697	374.9147	375.0188	375.1412	375.2913	375.4485	375.611	375.7763	375.949	376.1026	376.1747	376.105	375.9614	375.8742	375.7304	375.5749	375.4112	375.2317	375.043	374.8291	374.6289	374.3615	374.088	373.7024	373.3239	372.992	372.6184	372.3438	372.0106	371.6737	371.4172	371.1724	370.9863	370.7974	370.599	370.5483	370.3902	370.2694	370.2421	370.2492	370.2433	370.1807	370.0291	369.7957	369.4701	369.3907	369.3316	369.2523	369.2016	369.1264	369.0702	369.0168	368.9594	368.9194	368.887	368.8359	368.7625	368.6842	368.563	368.5498	368.5981	368.6462	368.7621	368.8732	368.9797	369.021	369.0222	369.0255	369.0091	368.9765	368.924	368.8859	368.8057	368.7293	368.6791	368.6322	368.5586	368.4934	368.4221	368.344	368.2594	368.2146	368.2017	368.1736	368.1384	368.0917	368.0558	368.015	367.9535	367.8353	367.6923	367.5211	367.4005	367.2928	367.2048	367.2436	367.3365	367.3542	367.2112	366.9151	366.584	366.6595	366.8206	366.7975	366.7726	366.7344	366.6379	366.5206	366.4882	366.4662	366.4378	366.4277	366.4025	366.3862	366.3653	366.3352	366.2727	366.1996	366.0498	365.7916	365.5925	365.3937	365.2221	365.0551	364.8466	364.6889	364.7394	364.3841	363.9738	363.5449	363.2294	363.039	362.9494	362.8334	362.8083	362.7946	362.832	362.886	362.8974	362.9201	362.9813	363.0909	363.1277	363.1461	363.0314	363.1568	363.1297	363.1051	363.1028	363.1095	363.1573	363.2112	363.3249	363.4944	363.6142	363.047	362.5947	363.366	363.6217	363.464	363.3615	363.2798	363.2778	363.284	363.3651	363.3781	363.4255	363.593	363.786	363.8852	363.9805	363.9706	364.1639	364.0742	364.1011	363.9629	363.8708
377.3135	377.0461	376.7586	376.5078	375.9837	375.9507	376.1933	376.4166	376.5462	376.6801	376.7151	376.7934	376.9269	376.7478	376.5692	376.3323	376.0995	375.7539	375.4395	375.1019	374.772	374.3949	373.9962	373.6541	373.3528	373.0238	372.6735	372.3308	371.9811	371.6891	371.3655	371.0236	370.705	370.531	370.288	370.0999	369.9393	369.7444	369.4799	369.1968	368.8959	368.5916	368.3048	367.9172	367.3411	366.9973	367.0042	366.8516	366.6544	366.5192	366.448	366.4658	366.658	366.375	366.8615	367.4341	367.7444	368.0833	368.4276	368.692	369.0408	369.4152	369.8368	370.2627	370.6943	371.1542	371.5349	372.0253	372.4332	372.8476	373.2353	373.6143	374.0594	374.4922	374.8389	375.0331	375.2775	375.4959	375.636	375.6171	375.4817	375.3525	375.2473	375.1731	375.1344	375.1611	375.2153	375.336	375.4752	375.6334	375.7837	375.9559	376.1322	376.315	376.4663	376.5442	376.4448	376.326	376.2156	376.0575	375.9058	375.7459	375.5786	375.3858	375.1982	374.9935	374.7556	374.4978	374.1176	373.7335	373.4008	373.0347	372.7667	372.4217	372.0642	371.8188	371.5898	371.4007	371.2187	371.0305	370.9929	370.8195	370.662	370.6149	370.6076	370.6126	370.5482	370.3894	370.155	369.8714	369.7528	369.7001	369.5796	369.5522	369.4941	369.4449	369.3955	369.3508	369.3269	369.2926	369.2489	369.1846	369.0915	369.0052	368.9804	368.9956	369.0304	369.1398	369.2474	369.3308	369.3651	369.3694	369.3763	369.3717	369.3229	369.2849	369.257	369.1738	369.086	369.0224	368.9762	368.9039	368.8195	368.754	368.6752	368.5867	368.5376	368.5261	368.4848	368.4218	368.3495	368.2783	368.2216	368.1245	368.0179	367.9235	367.841	367.7784	367.7666	367.7915	367.8027	367.6631	367.3582	367.008	367.0489	367.3158	367.2715	367.2091	367.1447	367.0729	366.9777	366.8779	366.8033	366.7369	366.6778	366.6219	366.5985	366.561	366.5179	366.4783	366.41	366.3463	366.293	366.1833	365.9974	365.7282	365.5386	365.3282	365.1391	364.936	364.7832	364.8081	364.383	363.936	363.536	363.2364	363.107	363.0014	362.9274	362.8982	362.9167	362.9198	362.955	362.951	362.9659	363.0159	363.1051	363.1508	363.1851	363.0551	363.1961	363.1597	363.1254	363.132	363.1355	363.1677	363.2231	363.275	363.3503	363.4373	363.333	362.5947	363.0056	363.7266	363.5214	363.3859	363.314	363.2899	363.2998	363.3326	363.3326	363.3651	363.554	363.7599	363.895	364.0211	363.9905	364.2406	364.1855	364.21	364.0788	363.9716
377.5097	377.2594	376.952	376.4189	376.4659	376.6439	376.9641	377.1707	377.3327	377.3945	377.3578	377.3813	377.3287	377.1162	376.8783	376.6271	376.3376	376.0011	375.7189	375.3288	374.9627	374.582	374.2146	373.8993	373.58	373.2618	372.9366	372.5948	372.2621	371.9449	371.6358	371.2791	370.9666	370.7432	370.5251	370.3468	370.1806	369.9659	369.7249	369.456	369.1595	368.8583	368.554	368.2256	367.7415	367.2514	367.1016	367.0561	366.853	366.6924	366.6179	366.6093	366.7339	366.5529	366.762	367.4023	367.7596	368.0968	368.4578	368.7214	369.0552	369.4103	369.7988	370.1976	370.5775	370.9959	371.3715	371.8156	372.2098	372.6438	373.0637	373.4712	373.9147	374.3857	374.8052	375.0489	375.344	375.6004	375.7552	375.7454	375.6678	375.5771	375.4903	375.4288	375.4028	375.4196	375.4964	375.6272	375.7556	375.9055	376.0675	376.229	376.3992	376.5695	376.7197	376.8055	376.7453	376.6214	376.5105	376.3351	376.1761	376.0225	375.8538	375.6757	375.4926	375.2814	375.0771	374.8242	374.4624	374.0754	373.7302	373.3811	373.1262	372.7627	372.4095	372.1875	371.9708	371.7565	371.5826	371.4075	371.3441	371.1343	370.9648	370.9404	370.9424	370.906	370.8044	370.6267	370.4318	370.2075	370.0559	369.98	369.8705	369.8331	369.806	369.7615	369.7197	369.6824	369.6636	369.6354	369.5888	369.5233	369.4535	369.3499	369.335	369.3609	369.3864	369.4955	369.5923	369.6698	369.7014	369.712	369.7289	369.7248	369.6879	369.6656	369.6396	369.5497	369.4638	369.3844	369.3164	369.2406	369.1436	369.0835	369.0032	368.9211	368.8647	368.8384	368.7675	368.6967	368.5652	368.4392	368.358	368.3109	368.2842	368.2554	368.2599	368.257	368.252	368.1525	367.8479	367.5332	367.4271	367.874	367.8402	367.7478	367.6391	367.5638	367.4337	367.3311	367.2646	367.144	367.0292	366.9316	366.86	366.7962	366.7479	366.7112	366.6527	366.5672	366.4987	366.4063	366.35	366.2799	366.1347	365.9283	365.6369	365.4279	365.2142	365.0498	364.8496	364.8521	364.3526	363.8768	363.451	363.2137	363.135	363.092	363.0636	363.0491	363.0726	363.0514	363.0507	363.0515	363.0297	363.0569	363.1159	363.1564	363.2032	363.0885	363.2406	363.192	363.1422	363.1396	363.1372	363.1676	363.2335	363.2855	363.34	363.4203	363.5894	362.7303	363.1139	363.7972	363.6115	363.4467	363.3421	363.343	363.3376	363.3436	363.3481	363.4336	363.6818	363.9304	364.0693	364.1317	364.1857	364.1842	364.3965	364.247	364.2274	364.1208
377.7553	377.3379	377.0629	377.0886	377.2501	377.6867	378.0447	378.1582	378.0947	378.01	377.987	377.8649	377.7438	377.5415	377.2676	376.9792	376.6878	376.3468	375.9855	375.6025	375.244	374.871	374.5333	374.2221	373.9038	373.5782	373.2364	372.9332	372.6275	372.2742	371.9753	371.6152	371.2981	371.0292	370.8462	370.6366	370.4756	370.2475	370.0042	369.7547	369.4764	369.1667	368.838	368.5452	368.1893	367.74	367.3188	367.2181	367.1542	366.9652	366.8192	366.7891	366.885	366.9021	366.6057	367.306	367.7453	368.0959	368.4703	368.7457	369.0659	369.4049	369.7356	370.0992	370.4209	370.8058	371.1	371.4774	371.8566	372.3119	372.7686	373.228	373.7318	374.2354	374.711	375.0502	375.3841	375.6734	375.8819	375.942	375.8822	375.8112	375.7336	375.6838	375.6779	375.7021	375.7827	375.9211	376.0647	376.2168	376.3898	376.5559	376.7254	376.8943	377.0485	377.1545	377.1015	376.9729	376.8578	376.6835	376.5167	376.3648	376.1922	376.0257	375.8555	375.6677	375.4605	375.2187	374.8828	374.4998	374.1245	373.7791	373.5482	373.1888	372.8696	372.6727	372.4416	372.2057	372.0408	371.8743	371.7963	371.5744	371.4075	371.3548	371.3539	371.2491	371.1553	370.9972	370.8236	370.5883	370.4329	370.3327	370.2569	370.2025	370.1643	370.1307	370.0919	370.0544	370.0367	370.0138	369.9655	369.9172	369.8528	369.7403	369.7453	369.7792	369.8064	369.9126	370.0099	370.0815	370.1196	370.1429	370.1693	370.1653	370.1439	370.1295	370.1084	370.0102	369.942	369.8676	369.7674	369.6772	369.576	369.5053	369.4378	369.3564	369.2923	369.2243	369.0964	368.9291	368.7772	368.7213	368.703	368.7201	368.7729	368.8396	368.8081	368.6525	368.349	367.9991	368.1178	368.5005	368.5205	368.415	368.2875	368.1791	368.0297	367.916	367.781	367.6607	367.5524	367.4304	367.3039	367.1523	367.0666	366.9927	366.9176	366.8454	366.7853	366.681	366.5794	366.5016	366.4385	366.3602	366.2572	366.0879	365.8488	365.5282	365.3398	365.1838	364.9391	364.9003	364.2591	363.7185	363.2895	363.1837	363.1418	363.1131	363.1132	363.1213	363.1707	363.1619	363.1261	363.1575	363.1292	363.0996	363.1386	363.2097	363.2467	363.1818	363.283	363.2205	363.1572	363.178	363.1894	363.2078	363.2685	363.3304	363.3824	363.4768	363.703	362.8755	362.9201	363.876	363.7234	363.6116	363.4748	363.4293	363.4214	363.3534	363.3957	363.6533	363.924	364.1455	364.2408	364.3098	364.356	364.3123	364.5106	364.3917	364.4135	364.3155
377.7539	377.6717	377.6572	377.7589	378.2327	378.665	378.8344	378.819	378.7206	378.5128	378.3486	378.2501	378.116	377.9054	377.6294	377.3251	376.9761	376.6184	376.246	375.8834	375.5158	375.1656	374.8176	374.513	374.1942	373.8829	373.5496	373.2404	372.9458	372.5839	372.263	371.961	371.5942	371.2917	371.1134	370.9069	370.7164	370.4786	370.2336	370.0101	369.7317	369.4243	369.0872	368.796	368.5099	368.1164	367.648	367.4178	367.3591	367.198	367.0107	366.9195	367.0048	367.1578	366.6057	367.2579	367.7233	368.0788	368.4744	368.7566	369.0733	369.3965	369.6992	370.0124	370.2767	370.6046	370.8483	371.1661	371.5458	372.0148	372.5064	373.0076	373.5568	374.0978	374.6167	375.0057	375.3946	375.6851	375.97	376.1349	376.1257	376.0578	375.9938	375.9583	375.9485	375.9934	376.0784	376.2096	376.3517	376.4939	376.6666	376.8293	377.0045	377.1642	377.3112	377.4274	377.4182	377.2784	377.1537	376.9927	376.8268	376.6671	376.4957	376.3302	376.1568	375.9848	375.792	375.56	375.2596	374.8912	374.4125	374.1199	373.9597	373.6337	373.349	373.1561	372.8932	372.655	372.4824	372.2928	372.1831	371.9691	371.7857	371.7321	371.6732	371.5784	371.4749	371.3021	371.1334	370.9206	370.7918	370.6365	370.5659	370.5551	370.4864	370.4435	370.409	370.366	370.3507	370.3308	370.2851	370.2395	370.1834	370.0899	370.1073	370.1489	370.1954	370.3047	370.4009	370.4793	370.5274	370.5674	370.5902	370.5878	370.5748	370.5499	370.5258	370.4428	370.3831	370.3066	370.1883	370.095	369.9854	369.8988	369.8226	369.7256	369.6251	369.5106	369.3404	369.1805	369.1467	369.1748	369.2376	369.298	369.3318	369.1879	368.8743	368.5221	368.6949	369.0753	369.1263	368.9911	368.9047	368.7896	368.6227	368.4915	368.37	368.2413	368.1016	367.9615	367.8166	367.6708	367.5408	367.3829	367.2272	367.1461	367.0632	366.9803	366.9046	366.796	366.6984	366.597	366.5119	366.4301	366.3316	366.1896	365.9899	365.6942	365.4834	365.3038	365.0166	364.9368	364.1922	363.6592	363.2766	363.1945	363.1581	363.1446	363.1514	363.162	363.1998	363.1872	363.1696	363.1809	363.1696	363.1333	363.1766	363.2548	363.2631	363.1876	363.3248	363.2426	363.1806	363.2198	363.2506	363.2494	363.291	363.3717	363.4518	363.5204	363.6961	363.1967	362.8755	363.3445	363.8247	363.7222	363.5793	363.4682	363.4427	363.4199	363.516	363.7671	364.0406	364.2693	364.4049	364.4671	364.503	364.5278	364.4876	364.6676	364.4513	364.4954
378.4237	378.2782	378.4573	378.8834	379.2899	379.5198	379.4994	379.3517	379.1561	378.9542	378.7875	378.6718	378.5227	378.3356	378.0532	377.6545	377.2996	376.9283	376.5771	376.2208	375.8459	375.489	375.1679	374.8618	374.5342	374.2249	373.8897	373.5635	373.2908	372.9271	372.5887	372.3054	371.9272	371.614	371.4081	371.1972	370.985	370.7366	370.4879	370.2688	370.0031	369.707	369.3725	369.0654	368.765	368.461	368.0099	367.669	367.549	367.4126	367.2478	367.1241	367.1828	367.2468	366.7892	367.2763	367.6174	368.0472	368.4521	368.7646	369.0835	369.3777	369.6591	369.9018	370.1109	370.3579	370.5715	370.8744	371.2852	371.7699	372.2755	372.7744	373.3208	373.9017	374.4464	374.8454	375.2284	375.6096	375.975	376.2729	376.3791	376.3213	376.2587	376.228	376.2234	376.2735	376.373	376.4866	376.6288	376.7654	376.9334	377.1044	377.2787	377.4261	377.5765	377.7195	377.7761	377.6011	377.4889	377.3217	377.162	377.0088	376.8426	376.6909	376.5054	376.3507	376.1733	375.9637	375.6821	375.3538	374.9798	374.5999	374.5049	374.2253	373.9611	373.7517	373.4646	373.2042	372.9861	372.7584	372.5794	372.3514	372.196	372.1379	372.0736	371.9793	371.8192	371.6559	371.5022	371.315	371.1784	371.03	370.8973	370.8496	370.8462	370.7808	370.739	370.6958	370.6745	370.6619	370.6236	370.5945	370.5565	370.4885	370.4821	370.5291	370.5914	370.71	370.8123	370.8937	370.967	371.012	371.0286	371.0231	371.0018	370.9685	370.9566	370.8814	370.8194	370.7437	370.6238	370.5296	370.4166	370.3166	370.1932	370.0441	369.8871	369.722	369.6248	369.6214	369.7196	369.8189	369.8659	369.7085	369.4011	369.0596	369.2622	369.6439	369.6328	369.5214	369.4257	369.3064	369.2051	369.0742	368.9673	368.8453	368.6913	368.535	368.4077	368.2278	368.0588	367.9114	367.7598	367.6073	367.419	367.2761	367.1994	367.1218	367.0302	366.9291	366.8421	366.7206	366.5928	366.4894	366.4022	366.3049	366.1268	365.8409	365.623	365.465	365.1339	364.9811	364.2246	363.6911	363.2968	363.2195	363.2034	363.2007	363.2014	363.2258	363.2329	363.2143	363.2046	363.2385	363.237	363.1774	363.2053	363.279	363.2908	363.2213	363.3456	363.2549	363.2017	363.2597	363.2858	363.2969	363.3419	363.4184	363.5116	363.5972	363.6665	363.7873	363.413	362.8755	363.6064	363.7768	363.6371	363.5122	363.4673	363.4993	363.6057	363.8655	364.1476	364.42	364.5765	364.6308	364.6618	364.6848	364.6363	364.8158	364.6716	364.6604
